# .PCD v0.7 - Point Cloud Data file format
VERSION 0.7
FIELDS x y z time intensity laser_id label
SIZE 4 4 4 8 4 2 2
TYPE F F F F F U U
COUNT 1 1 1 1 1 1 1
WIDTH 920
HEIGHT 1
VIEWPOINT 0 0 0 1 0 0 0
POINTS 920
DATA ascii
60.011024 14.216665 12.139732 1.6032666e+09 29 13 0
55.71983 14.275325 11.180645 1.6032666e+09 29 13 0
58.962368 14.106502 11.759751 1.6032666e+09 30 13 0
59.508968 14.058165 11.905961 1.6032666e+09 34 13 0
60.984741 14.224075 12.396416 1.6032666e+09 29 13 0
56.59029 14.197163 11.360454 1.6032666e+09 29 13 0
59.245228 14.136884 11.83813 1.6032666e+09 32 13 0
60.869331 14.019226 12.141559 1.6032666e+09 36 13 0
60.131313 13.983316 12.020518 1.6032666e+09 35 13 0
61.948822 13.842141 12.296968 1.6032666e+09 37 13 0
57.771347 14.195763 11.564208 1.6032666e+09 30 13 0
54.312759 14.390562 10.862682 1.6032666e+09 27 13 0
61.724285 14.05819 12.325455 1.6032666e+09 35 13 0
53.934158 14.453519 11.130647 1.6032666e+09 23 13 0
54.780586 14.555047 11.261461 1.6032666e+09 25 13 0
54.741524 14.4208 10.969532 1.6032666e+09 28 13 0
57.672619 14.455054 11.865201 1.6032666e+09 27 13 0
55.17086 14.539774 11.261984 1.6032666e+09 26 13 0
53.004349 14.48662 10.699694 1.6032666e+09 27 13 0
54.204624 14.407833 10.921239 1.6032666e+09 28 13 0
53.970314 14.747182 11.199522 1.6032666e+09 24 13 0
55.705906 14.494441 11.358024 1.6032666e+09 26 13 0
53.419388 14.483701 10.758575 1.6032666e+09 27 13 0
31.90307 8.6667528 5.3465433 1.6032666e+09 57 12 0
30.7005 8.4062595 5.0752697 1.6032666e+09 57 12 0
49.656609 14.970107 10.481243 1.6032666e+09 20 13 0
52.197376 14.54432 10.532657 1.6032666e+09 26 13 0
48.896618 16.162603 10.029565 1.6032666e+09 24 13 0
51.286289 14.597293 10.383418 1.6032666e+09 25 13 0
51.498432 14.76783 10.601162 1.6032666e+09 23 13 0
50.665443 14.676632 10.221345 1.6032666e+09 25 13 0
50.090164 14.636577 10.16183 1.6032666e+09 25 13 0
51.300705 14.494207 10.335256 1.6032666e+09 25 13 0
52.209084 14.727505 10.797437 1.6032666e+09 23 13 0
51.824234 14.684102 10.655539 1.6032666e+09 23 13 0
37.91058 15.003522 5.7858615 1.6032666e+09 100 11 0
38.129868 15.144843 5.7952104 1.6032666e+09 100 11 0
38.188656 17.014374 5.9119349 1.6032666e+09 100 11 0
39.855469 17.561745 6.8981347 1.6032666e+09 74 12 0
34.72958 22.935648 5.3243318 1.6032666e+09 66 11 0
40.014931 17.934267 7.0760145 1.6032666e+09 35 12 0
38.138073 17.399874 5.9531603 1.6032666e+09 100 11 0
34.388565 25.15019 5.2311201 1.6032666e+09 73 11 0
34.471474 24.305347 5.2707334 1.6032666e+09 71 11 0
39.077587 30.469084 6.1105108 1.6032666e+09 96 11 0
39.167782 30.166542 6.1718864 1.6032666e+09 47 11 0
34.51144 24.504831 5.2893939 1.6032666e+09 71 11 0
39.162064 27.75481 6.1175532 1.6032666e+09 43 11 0
37.117271 33.344711 5.4958673 1.6032666e+09 26 10 0
34.404022 24.078636 5.2474065 1.6032666e+09 70 11 0
39.300579 28.482609 6.1863518 1.6032666e+09 89 11 0
19.845211 9.0988598 2.3140316 1.6032666e+09 30 9 0
20.558304 9.7353296 2.4385498 1.6032666e+09 32 9 0
18.788605 6.2639141 2.2684174 1.6032666e+09 19 9 0
19.589928 9.3243742 2.2442639 1.6032666e+09 36 9 0
18.4883 10.982679 1.6540353 1.6032666e+09 38 8 0
18.21096 12.820718 1.6808676 1.6032666e+09 43 8 0
17.181801 5.2473125 1.8965704 1.6032666e+09 7 9 0
19.391483 7.8297334 2.3349895 1.6032666e+09 48 9 0
17.729336 13.04454 1.5814213 1.6032666e+09 53 8 0
16.904499 6.3723812 1.7939508 1.6032666e+09 4 9 0
14.634409 5.8283472 1.2444515 1.6032666e+09 19 7 0
15.911001 5.3481011 1.5945746 1.6032666e+09 7 9 0
14.605021 11.091222 0.65088511 1.6032666e+09 47 7 0
15.012363 5.2217684 1.3649894 1.6032666e+09 12 7 0
22.162453 7.5288477 3.0448699 1.6032666e+09 58 11 0
15.478316 13.177764 1.0675142 1.6032666e+09 75 9 0
17.077297 14.373442 1.4774666 1.6032666e+09 75 9 0
22.642792 8.6043596 3.0526941 1.6032666e+09 52 11 0
16.47011 13.970578 1.3346527 1.6032666e+09 78 9 0
20.278273 13.548839 2.2905269 1.6032666e+09 100 10 0
14.750811 10.896755 0.70101225 1.6032666e+09 48 6 0
21.067358 10.48108 2.492244 1.6032666e+09 41 10 0
16.37002 14.185905 1.2943496 1.6032666e+09 73 9 0
23.035534 9.0335054 3.1170387 1.6032666e+09 54 11 0
21.025871 11.678269 2.4054022 1.6032666e+09 49 10 0
16.752251 11.172628 1.0728261 1.6032666e+09 53 7 0
21.381945 7.9955177 2.8149736 1.6032666e+09 49 11 0
15.145895 13.248159 0.97259611 1.6032666e+09 61 7 0
16.174683 6.1016412 1.6271673 1.6032666e+09 7 9 0
15.519468 5.7912951 1.4712949 1.6032666e+09 13 10 0
21.31608 5.6958237 2.9061532 1.6032666e+09 10 11 0
14.587986 5.399456 1.2479815 1.6032666e+09 13 7 0
14.752378 6.8694334 1.2352573 1.6032666e+09 34 7 0
15.89898 6.8244557 1.5376284 1.6032666e+09 14 10 0
22.42967 8.2769461 3.0338819 1.6032666e+09 50 11 0
15.720068 13.715647 1.1391058 1.6032666e+09 78 9 0
21.485044 7.0921621 2.8881545 1.6032666e+09 61 10 0
20.261608 11.886424 2.1464467 1.6032666e+09 53 10 0
20.093433 10.807644 2.0741496 1.6032666e+09 37 9 0
20.203215 11.05627 2.1645627 1.6032666e+09 47 10 0
20.992968 7.7965369 2.7502532 1.6032666e+09 48 11 0
15.118767 8.1605787 1.2195209 1.6032666e+09 73 7 0
21.613274 12.744443 2.5776186 1.6032666e+09 66 9 0
19.50032 6.8942165 2.4081674 1.6032666e+09 14 10 0
15.62843 7.515285 1.4559579 1.6032666e+09 70 9 0
16.186914 7.9754868 1.578739 1.6032666e+09 78 10 0
20.069786 13.108676 2.1923444 1.6032666e+09 100 10 0
20.969313 13.889931 2.4687979 1.6032666e+09 81 9 0
21.013992 10.955889 2.4425523 1.6032666e+09 45 10 0
23.844082 10.318255 3.190052 1.6032666e+09 31 11 0
16.599258 8.3231611 1.624583 1.6032666e+09 65 10 0
22.470871 9.1747761 2.9801931 1.6032666e+09 55 11 0
14.980451 4.9144826 1.3685451 1.6032666e+09 9 7 0
15.498316 14.156332 1.1031164 1.6032666e+09 81 9 0
20.697351 14.101276 2.3815391 1.6032666e+09 68 9 0
20.32074 11.54832 2.1350679 1.6032666e+09 52 10 0
21.52314 11.270129 2.5608108 1.6032666e+09 45 10 0
14.974016 11.106688 0.79766339 1.6032666e+09 48 6 0
15.476792 11.699713 0.97343975 1.6032666e+09 47 7 0
15.557788 11.985639 1.0303408 1.6032666e+09 70 9 0
22.028767 6.7530408 3.0247686 1.6032666e+09 14 10 0
20.122629 12.946561 2.1879578 1.6032666e+09 83 10 0
19.738003 12.926033 2.0641966 1.6032666e+09 100 10 0
20.661304 7.332375 2.6848483 1.6032666e+09 46 11 0
20.708302 7.4409804 2.702024 1.6032666e+09 47 11 0
15.295218 7.8964419 1.3310322 1.6032666e+09 74 7 0
21.454454 11.842807 2.5174906 1.6032666e+09 49 10 0
19.472551 5.290576 2.4776042 1.6032666e+09 9 11 0
20.16861 12.785601 2.1832323 1.6032666e+09 55 10 0
19.83209 5.9122028 2.540976 1.6032666e+09 10 11 0
20.820169 6.5444493 2.7562556 1.6032666e+09 32 11 0
20.192003 6.8509879 2.5688694 1.6032666e+09 14 10 0
17.057327 11.094486 1.2237839 1.6032666e+09 31 8 0
19.315245 5.0211067 2.4478993 1.6032666e+09 9 11 0
16.42502 13.265563 1.3076634 1.6032666e+09 74 9 0
23.063011 8.0234165 3.2042458 1.6032666e+09 49 11 0
21.674116 8.406846 2.854424 1.6032666e+09 51 11 0
15.087158 13.953466 0.97055858 1.6032666e+09 72 7 0
16.205484 6.8071837 1.6195282 1.6032666e+09 29 10 0
15.745749 6.7918015 1.4980361 1.6032666e+09 14 10 0
21.416727 6.193037 2.8939059 1.6032666e+09 14 10 0
19.683014 5.6440167 2.5141647 1.6032666e+09 10 11 0
17.672739 11.203149 1.3887266 1.6032666e+09 52 9 0
17.189453 6.8781424 1.8475614 1.6032666e+09 14 10 0
21.120888 13.064981 2.5049489 1.6032666e+09 68 9 0
20.742306 12.628692 2.3720191 1.6032666e+09 79 10 0
14.61926 8.1125259 1.1624343 1.6032666e+09 90 9 0
20.815395 12.006604 2.3464065 1.6032666e+09 51 10 0
14.520346 7.9805346 1.1248523 1.6032666e+09 70 7 0
23.297766 9.231534 3.1558833 1.6032666e+09 55 11 0
22.065344 7.4122653 3.0286272 1.6032666e+09 57 11 0
21.356379 6.7679677 2.8650589 1.6032666e+09 15 10 0
16.01601 7.2099242 1.5628453 1.6032666e+09 49 8 0
15.551365 7.4102969 1.4498916 1.6032666e+09 57 9 0
20.467438 5.9050813 2.6910236 1.6032666e+09 20 11 0
21.096912 6.0736899 2.8179581 1.6032666e+09 14 10 0
16.276466 11.626613 1.172549 1.6032666e+09 57 7 0
20.101482 5.6984038 2.6217256 1.6032666e+09 10 11 0
20.925373 5.6940575 2.7904365 1.6032666e+09 14 10 0
16.300243 11.029313 0.9632954 1.6032666e+09 39 7 0
15.402786 11.002787 0.78740084 1.6032666e+09 45 6 0
15.253743 5.9621224 1.4086622 1.6032666e+09 8 8 0
17.389183 13.963195 1.5563163 1.6032666e+09 72 9 0
23.22547 8.5225668 3.2111235 1.6032666e+09 52 11 0
21.557856 14.284193 2.5792892 1.6032666e+09 60 10 0
21.672674 13.734595 2.6324415 1.6032666e+09 100 10 0
19.022278 8.4120302 2.1893795 1.6032666e+09 38 9 0
20.883995 14.366361 2.4002297 1.6032666e+09 55 9 0
17.986055 11.958049 1.6013008 1.6032666e+09 70 9 0
21.627228 13.300948 2.605705 1.6032666e+09 100 10 0
20.120621 10.252935 2.1985333 1.6032666e+09 41 9 0
18.707289 8.1926918 2.1483843 1.6032666e+09 95 10 0
18.50787 6.4744401 2.1779411 1.6032666e+09 8 9 0
17.822514 6.5691671 2.0154109 1.6032666e+09 14 10 0
14.543352 4.9934134 1.251204 1.6032666e+09 12 7 0
18.423065 14.247153 1.7827883 1.6032666e+09 73 9 0
18.335747 14.067738 1.7731934 1.6032666e+09 79 9 0
19.122143 11.429842 1.7108721 1.6032666e+09 52 9 0
18.235142 7.8836355 2.0304101 1.6032666e+09 78 9 0
18.697695 7.5627995 2.1961899 1.6032666e+09 74 10 0
18.66481 15.749917 1.8887736 1.6032666e+09 63 8 0
20.017872 23.651178 2.0198574 1.6032666e+09 54 8 0
15.911643 19.822773 1.0944731 1.6032666e+09 81 7 0
18.514347 18.065399 1.7788054 1.6032666e+09 52 8 0
21.659264 16.004021 2.5806718 1.6032666e+09 71 9 0
18.428398 18.360716 1.7104789 1.6032666e+09 67 8 0
20.7043 18.241966 2.2626872 1.6032666e+09 51 9 0
18.560913 14.771987 1.8069907 1.6032666e+09 85 9 0
14.968578 15.888322 0.96349549 1.6032666e+09 79 7 0
15.380866 16.989862 1.0353771 1.6032666e+09 89 7 0
15.712048 17.267963 1.1243116 1.6032666e+09 90 7 0
15.547026 20.194056 1.0002332 1.6032666e+09 82 7 0
14.613135 23.457554 0.68853062 1.6032666e+09 81 7 0
16.485373 15.229743 1.3379332 1.6032666e+09 80 9 0
15.525598 19.987144 1.0026361 1.6032666e+09 91 7 0
16.805122 16.192703 1.3865494 1.6032666e+09 78 9 0
19.081202 23.315554 1.7552812 1.6032666e+09 55 9 0
18.484428 14.59707 1.7978752 1.6032666e+09 75 9 0
19.548649 19.255783 1.9479797 1.6032666e+09 70 8 0
23.818949 22.508659 2.9834087 1.6032666e+09 100 10 0
16.844376 17.407503 1.3949085 1.6032666e+09 76 9 0
16.415766 21.916773 1.1216611 1.6032666e+09 77 7 0
16.958374 16.816114 1.4164251 1.6032666e+09 63 9 0
17.97798 20.117517 1.584895 1.6032666e+09 69 9 0
19.964182 14.606738 2.2000532 1.6032666e+09 61 10 0
20.301704 15.225364 2.2502799 1.6032666e+09 74 9 0
15.965768 15.79768 1.2267741 1.6032666e+09 75 9 0
15.986706 16.390484 1.207746 1.6032666e+09 82 7 0
15.457583 21.193197 0.93076301 1.6032666e+09 85 7 0
18.877529 22.728046 1.7237593 1.6032666e+09 54 9 0
20.396152 16.462219 2.2849989 1.6032666e+09 100 10 0
15.613203 15.328946 1.1432682 1.6032666e+09 80 9 0
19.905001 14.901686 2.1754072 1.6032666e+09 94 10 0
20.142738 15.517608 2.2245631 1.6032666e+09 99 10 0
22.558149 18.990374 2.7152195 1.6032666e+09 85 10 0
15.61851 14.818242 1.1250026 1.6032666e+09 77 9 0
15.274431 19.963205 0.9394033 1.6032666e+09 91 7 0
23.571619 23.074991 2.885901 1.6032666e+09 100 10 0
15.845307 16.003672 1.1765314 1.6032666e+09 76 9 0
16.075027 16.998861 1.2261269 1.6032666e+09 82 9 0
15.423345 21.87657 0.92732644 1.6032666e+09 78 7 0
18.129183 14.814219 1.7156256 1.6032666e+09 85 9 0
20.854479 15.790249 2.3902903 1.6032666e+09 100 10 0
16.171543 17.111191 1.1954001 1.6032666e+09 89 7 0
21.008108 17.571215 2.3873107 1.6032666e+09 100 10 0
17.872618 19.309139 1.5479646 1.6032666e+09 55 9 0
22.350437 19.566891 2.6420968 1.6032666e+09 100 10 0
22.976376 19.622232 2.7795923 1.6032666e+09 89 10 0
22.733213 17.354279 2.8340135 1.6032666e+09 75 10 0
16.13134 22.973654 1.0572112 1.6032666e+09 81 7 0
15.507507 14.508299 1.1097773 1.6032666e+09 82 9 0
20.65612 16.9592 2.3459992 1.6032666e+09 100 10 0
22.226128 17.201786 2.7107401 1.6032666e+09 67 9 0
21.566217 17.552443 2.5384936 1.6032666e+09 77 10 0
18.010208 22.521349 1.5223379 1.6032666e+09 66 9 0
20.693663 17.111202 2.3571341 1.6032666e+09 74 10 0
18.117655 23.430735 1.5455154 1.6032666e+09 69 9 0
23.064461 21.477425 2.7696791 1.6032666e+09 97 10 0
23.861477 23.444611 2.9147451 1.6032666e+09 100 10 0
18.02619 14.512362 1.7000716 1.6032666e+09 68 9 0
21.728138 18.689762 2.497937 1.6032666e+09 83 10 0
15.128866 14.623479 1.029227 1.6032666e+09 47 8 0
23.243536 22.257698 2.8286569 1.6032666e+09 99 10 0
18.174294 22.008255 1.5804228 1.6032666e+09 67 8 0
18.70788 17.414598 1.8419505 1.6032666e+09 66 9 0
16.598522 18.356403 1.2922505 1.6032666e+09 50 9 0
22.941763 18.280766 2.8351336 1.6032666e+09 81 10 0
16.375818 23.316658 1.1007392 1.6032666e+09 81 7 0
19.11937 23.082798 1.7850733 1.6032666e+09 68 9 0
16.514248 18.206293 1.2881973 1.6032666e+09 70 9 0
16.664343 15.272136 1.3899318 1.6032666e+09 88 9 0
16.13311 14.581817 1.2321091 1.6032666e+09 68 7 0
15.877727 19.31814 1.1064036 1.6032666e+09 68 8 0
22.278654 18.65987 2.6503217 1.6032666e+09 83 10 0
22.501785 18.750418 2.7260795 1.6032666e+09 82 10 0
15.771688 21.96982 0.9791311 1.6032666e+09 68 7 0
19.984324 23.031271 2.0097761 1.6032666e+09 70 8 0
19.139072 22.049904 1.8053483 1.6032666e+09 68 8 0
19.436968 21.874273 1.8658097 1.6032666e+09 64 9 0
15.5882 23.157839 0.97342956 1.6032666e+09 52 8 0
21.902645 16.318848 2.652024 1.6032666e+09 100 10 0
15.12377 17.012609 0.95627701 1.6032666e+09 89 7 0
22.163439 15.720189 2.7008882 1.6032666e+09 100 10 0
21.621168 15.308837 2.5760126 1.6032666e+09 100 10 0
21.631302 15.090213 2.5646091 1.6032666e+09 97 10 0
21.445711 14.627696 2.5265241 1.6032666e+09 93 10 0
15.847017 22.717138 0.97032911 1.6032666e+09 80 7 0
17.843777 16.362843 1.6582857 1.6032666e+09 69 8 0
22.545105 15.772371 2.8050926 1.6032666e+09 100 10 0
15.025793 16.343191 0.96066207 1.6032666e+09 83 7 0
15.82248 18.199995 1.1130573 1.6032666e+09 93 7 0
15.266361 18.229401 0.94856942 1.6032666e+09 86 7 0
14.895706 15.297247 0.96711308 1.6032666e+09 75 7 0
19.526505 20.127264 1.9610833 1.6032666e+09 73 8 0
19.279558 18.459591 1.9338174 1.6032666e+09 66 8 0
18.674541 16.893158 1.8188783 1.6032666e+09 83 9 0
18.418211 16.287428 1.7853755 1.6032666e+09 61 9 0
10.190498 43.80349 -0.80120039 1.6032666e+09 26 6 0
10.292306 44.545471 -0.79802871 1.6032666e+09 24 7 0
-10.8096 33.685787 -5.4907637 1.6032666e+09 67 3 0
-7.8953543 39.289165 -4.9128418 1.6032666e+09 31 4 0
-8.3183279 40.167671 -5.0366168 1.6032666e+09 33 4 0
-9.0014391 35.378223 -5.0995526 1.6032666e+09 72 3 0
-5.6481628 19.555693 -3.9566154 1.6032666e+09 75 2 0
-5.5368061 19.424248 -3.9260859 1.6032666e+09 75 2 0
-5.2173243 19.488199 -3.8419416 1.6032666e+09 75 2 0
-5.1361151 18.761602 -3.7810714 1.6032666e+09 71 2 0
-5.0076013 18.582224 -3.7354786 1.6032666e+09 76 2 0
-6.3405886 20.340014 -4.1344595 1.6032666e+09 73 2 0
-5.9977632 20.353144 -4.0431919 1.6032666e+09 81 2 0
-5.0756598 19.225771 -3.7861063 1.6032666e+09 74 2 0
-5.7083802 20.741867 -3.9810648 1.6032666e+09 75 2 0
11.146425 -5.2555537 0.51834422 1.6032666e+09 12 4 0
11.723343 -5.3155441 0.65606308 1.6032666e+09 16 4 0
12.028734 -4.8077488 0.74116719 1.6032666e+09 13 5 0
9.0259733 -6.8469496 0.0448322 1.6032666e+09 86 3 0
9.8054209 -7.2726517 0.2248307 1.6032666e+09 76 4 0
12.557323 -5.4352684 0.85266596 1.6032666e+09 19 5 0
10.227818 -6.1106429 0.31500742 1.6032666e+09 92 4 0
12.136719 -8.2095957 1.0218811 1.6032666e+09 94 9 0
13.768405 -7.1039882 1.0774863 1.6032666e+09 11 7 0
8.7163773 -5.3376565 0.019159205 1.6032666e+09 94 5 0
7.150373 -5.0081415 0.32148686 1.6032666e+09 100 8 0
12.110926 -7.7554526 0.79265487 1.6032666e+09 57 7 0
9.5094976 -5.7407732 0.19199356 1.6032666e+09 84 4 0
9.7786589 -5.4541807 0.24867781 1.6032666e+09 58 7 0
9.5531445 -4.9118843 0.25990629 1.6032666e+09 50 7 0
8.6891737 -5.2381797 0.027103862 1.6032666e+09 100 5 0
7.2448235 -5.3312473 0.52086896 1.6032666e+09 45 6 0
14.294188 -6.6502137 1.2217091 1.6032666e+09 11 7 0
10.299417 -6.463933 0.35543811 1.6032666e+09 87 5 0
9.957077 -4.8892055 0.34534574 1.6032666e+09 70 5 0
5.4725361 -5.1158462 -0.59602278 1.6032666e+09 100 2 0
6.4473801 -5.692347 0.53769416 1.6032666e+09 100 9 0
8.9798546 -5.0063171 0.11098641 1.6032666e+09 68 6 0
13.679209 -8.025485 1.0638179 1.6032666e+09 50 7 0
8.9623032 -6.0796895 0.053826839 1.6032666e+09 84 4 0
11.717313 -6.9849205 0.71490926 1.6032666e+09 60 9 0
5.3419499 -5.0870805 -0.63918036 1.6032666e+09 84 5 0
9.5738583 -6.1979146 0.36078247 1.6032666e+09 65 8 0
13.609867 -4.8493557 1.1125958 1.6032666e+09 9 7 0
13.579996 -6.3795347 1.0587595 1.6032666e+09 8 6 0
5.8807449 -5.1797647 0.099227026 1.6032666e+09 100 0 0
11.687319 -7.1691246 0.69489443 1.6032666e+09 48 9 0
12.976848 -6.425272 0.91531461 1.6032666e+09 8 6 0
12.471997 -8.2674284 1.1000772 1.6032666e+09 100 9 0
12.176535 -6.439929 0.79634374 1.6032666e+09 72 9 0
6.9065762 -5.2266254 0.17096177 1.6032666e+09 100 8 0
11.282581 -6.851419 0.5998702 1.6032666e+09 62 6 0
11.100513 -5.9542608 0.52030593 1.6032666e+09 61 6 0
14.316587 -6.9474297 1.2176857 1.6032666e+09 11 7 0
12.566563 -6.4074469 0.88362354 1.6032666e+09 46 8 0
10.822324 -5.2414317 0.50374019 1.6032666e+09 73 3 0
12.97809 -4.9987135 0.96266454 1.6032666e+09 7 6 0
7.5161896 -4.9583063 -0.14828467 1.6032666e+09 91 2 0
8.6436338 -5.8246484 -0.020381249 1.6032666e+09 77 2 0
6.876987 -4.8128953 -0.26790336 1.6032666e+09 94 2 0
13.624595 -5.1330619 1.1085671 1.6032666e+09 9 7 0
13.691514 -6.1029782 1.0938228 1.6032666e+09 10 7 0
7.2541819 -5.0272264 -0.12315092 1.6032666e+09 148 3 0
14.183956 -5.4830999 1.237046 1.6032666e+09 11 7 0
4.635973 -3.9323258 -0.88192016 1.6032666e+09 27 2 0
4.7448139 -3.3790586 -0.89319038 1.6032666e+09 58 1 0
4.5407276 -3.151479 -0.94355422 1.6032666e+09 51 1 0
4.4982924 2.0748401 -1.122602 1.6032666e+09 10 1 0
4.3918271 4.6116648 -1.2495067 1.6032666e+09 10 2 0
4.6551056 1.5556757 -1.061753 1.6032666e+09 9 0 0
3.9291804 -4.5418572 -0.99443913 1.6032666e+09 100 2 0
4.5858955 0.99485892 -1.0833644 1.6032666e+09 15 1 0
4.6058316 -3.4985507 -0.91608036 1.6032666e+09 47 3 0
3.2820301 -3.3726292 -1.2609664 1.6032666e+09 34 0 0
3.8609855 2.9027257 -1.3107769 1.6032666e+09 24 0 0
4.3808384 -4.0609636 -0.94611579 1.6032666e+09 35 3 0
4.7628808 2.6651583 -1.0608981 1.6032666e+09 22 2 0
3.6200743 -3.4946437 -1.1616472 1.6032666e+09 60 1 0
3.9110198 2.8467431 -1.2961658 1.6032666e+09 15 0 0
4.6658249 -2.4536791 -1.0558101 1.6032666e+09 42 2 0
4.5715508 4.183486 -1.1893361 1.6032666e+09 10 2 0
4.4170914 -2.2681279 -1.1463506 1.6032666e+09 40 1 0
4.4561062 -1.9644481 -1.1243054 1.6032666e+09 7 1 0
4.4980364 -3.2731991 -0.95427686 1.6032666e+09 60 1 0
4.6085691 3.761337 -1.1563026 1.6032666e+09 10 2 0
4.7621169 3.1077702 -1.0880744 1.6032666e+09 27 2 0
4.0838571 -3.5717402 -1.0531168 1.6032666e+09 51 1 0
4.7221079 -3.1409261 -0.89824677 1.6032666e+09 38 3 0
4.3445654 2.5388725 -1.1791757 1.6032666e+09 25 1 0
3.4071984 -4.0391917 -1.1862961 1.6032666e+09 41 1 0
4.1748514 1.2202311 -1.1883726 1.6032666e+09 7 0 0
4.5627556 -1.4124087 -1.1027101 1.6032666e+09 7 1 0
3.0934124 -4.4847574 -1.223545 1.6032666e+09 79 1 0
3.8817482 4.631031 -1.3799961 1.6032666e+09 6 1 0
3.8904328 -2.5043311 -1.2397434 1.6032666e+09 24 0 0
4.4676504 4.4057026 -1.2196511 1.6032666e+09 7 2 0
3.8167243 -3.1958029 -1.1166925 1.6032666e+09 51 1 0
4.4036803 3.4671185 -1.2049528 1.6032666e+09 11 1 0
4.6673779 0.61620188 -1.0620729 1.6032666e+09 18 1 0
4.6153507 0.28815061 -1.0927131 1.6032666e+09 12 1 0
4.6423903 -0.53467965 -1.0788652 1.6032666e+09 9 1 0
15.20006 -8.4318743 1.4434931 1.6032666e+09 46 9 0
14.483011 -8.0470915 1.2599465 1.6032666e+09 45 9 0
14.941408 -7.2812719 1.354735 1.6032666e+09 12 7 0
16.199167 -6.3642497 1.746249 1.6032666e+09 46 8 0
14.866875 -6.5399685 1.364951 1.6032666e+09 11 7 0
18.90782 -5.2288933 2.5715144 1.6032666e+09 87 11 0
16.935575 -6.4972768 1.8857275 1.6032666e+09 12 10 0
18.078154 -5.4030766 2.3167362 1.6032666e+09 100 11 0
17.004932 -9.1678524 1.9235595 1.6032666e+09 61 10 0
15.690056 -7.8192525 1.5705452 1.6032666e+09 48 9 0
15.559061 -8.2068329 1.5389961 1.6032666e+09 30 10 0
14.782885 -5.6820822 1.3758812 1.6032666e+09 11 7 0
16.735281 -8.2900963 1.8376449 1.6032666e+09 49 9 0
16.437899 -8.2533045 1.7471902 1.6032666e+09 38 9 0
16.454762 -8.8334169 1.7620534 1.6032666e+09 39 9 0
16.436958 -7.7619739 1.7357694 1.6032666e+09 45 9 0
18.490582 -4.9931126 2.441808 1.6032666e+09 97 11 0
17.931957 -7.5764456 2.4079702 1.6032666e+09 48 10 0
20.947821 -5.4799299 4.2088652 1.6032666e+09 23 13 0
17.090218 -9.5049562 1.9437779 1.6032666e+09 62 10 0
16.242207 -7.0910492 1.7529486 1.6032666e+09 48 8 0
15.444814 -10.001291 2.0022559 1.6032666e+09 44 9 0
15.675228 -6.3066607 1.605957 1.6032666e+09 31 8 0
15.36376 -7.4344368 1.9241619 1.6032666e+09 94 9 0
14.830006 -5.9697108 1.3719362 1.6032666e+09 10 7 0
17.617111 -7.5644097 2.3222013 1.6032666e+09 61 10 0
14.865531 -7.8927379 1.3485515 1.6032666e+09 37 7 0
15.272909 -8.9775925 1.4952222 1.6032666e+09 38 8 0
12.188038 -3.6433859 0.78470021 1.6032666e+09 3 5 0
11.256251 -0.82661641 0.55335277 1.6032666e+09 6 3 0
10.43102 0.08494512 0.35207248 1.6032666e+09 31 1 0
11.926891 -2.3491209 0.73306537 1.6032666e+09 30 6 0
11.21244 -2.112422 0.53589833 1.6032666e+09 32 5 0
12.420032 -4.3009224 0.84171504 1.6032666e+09 10 7 0
9.8953018 -0.62737352 0.21682478 1.6032666e+09 7 1 0
11.765054 -4.1432152 0.68844366 1.6032666e+09 26 6 0
12.000297 -1.987751 0.73747909 1.6032666e+09 30 6 0
11.889304 -0.98819268 0.72054827 1.6032666e+09 6 7 0
10.986318 -0.75279135 0.48639545 1.6032666e+09 10 1 0
10.790047 0.17327201 0.45049703 1.6032666e+09 9 2 0
11.125554 -3.1713352 0.54182374 1.6032666e+09 14 7 0
11.55477 -2.0787256 0.61597127 1.6032666e+09 29 6 0
11.204378 4.7991471 0.44679469 1.6032666e+09 27 3 0
10.73822 -2.1429474 0.41586098 1.6032666e+09 39 5 0
10.529948 -2.0260389 0.37938374 1.6032666e+09 22 4 0
8.1787386 -0.66501975 -0.19177034 1.6032666e+09 10 1 0
10.07543 3.0121415 0.2309884 1.6032666e+09 22 4 0
10.515915 2.7248032 0.3453179 1.6032666e+09 15 2 0
8.9029207 2.4251277 -0.032223798 1.6032666e+09 14 5 0
10.157198 3.8043225 0.22946283 1.6032666e+09 16 5 0
10.885637 3.7790802 0.40859216 1.6032666e+09 10 7 0
9.2503185 3.010911 0.027083335 1.6032666e+09 14 6 0
8.9259739 3.6565697 -0.075135097 1.6032666e+09 10 5 0
8.7326698 3.9726031 -0.12405891 1.6032666e+09 7 2 0
9.7580738 -3.2086818 0.25374532 1.6032666e+09 39 5 0
10.525398 -3.0213289 0.40082115 1.6032666e+09 42 5 0
8.3391705 -1.3319424 -0.162827 1.6032666e+09 12 3 0
7.5397401 -1.1121581 -0.35153735 1.6032666e+09 8 6 0
12.944099 4.7314353 0.87272453 1.6032666e+09 9 7 0
5.4150767 -4.7260947 -0.6375013 1.6032666e+09 62 3 0
5.106617 0.97071576 -0.96144962 1.6032666e+09 13 1 0
13.702746 1.0278616 1.1610962 1.6032666e+09 19 6 0
5.9938302 1.2795421 -0.74070448 1.6032666e+09 22 1 0
5.0909605 -3.5401695 -0.80379182 1.6032666e+09 45 3 0
5.6554108 -2.4397883 -0.78318322 1.6032666e+09 48 4 0
4.9506583 -2.4652047 -0.93049216 1.6032666e+09 37 1 0
13.729399 -2.0933752 1.1569754 1.6032666e+09 26 6 0
5.978487 -1.5290253 -0.75782377 1.6032666e+09 7 1 0
5.3685169 -1.5047017 -0.90976638 1.6032666e+09 6 3 0
8.3235884 -2.0926104 -0.16044843 1.6032666e+09 32 5 0
7.550899 -1.6987337 -0.35920343 1.6032666e+09 6 6 0
11.870955 3.0189435 0.6759569 1.6032666e+09 14 5 0
5.1292543 -0.90181619 -0.96672684 1.6032666e+09 10 1 0
13.790824 -0.96151471 1.1859498 1.6032666e+09 3 8 0
6.1796532 -1.2920449 -0.69440889 1.6032666e+09 10 3 0
6.5170918 0.59902006 -0.59110218 1.6032666e+09 14 5 0
10.053862 -4.2314873 0.28791741 1.6032666e+09 31 2 0
10.430477 -4.7216611 0.40016922 1.6032666e+09 65 3 0
10.710916 4.779088 0.32276642 1.6032666e+09 23 3 0
6.9143467 -4.7250652 -0.25764582 1.6032666e+09 91 2 0
5.5286055 -0.73161048 -0.86006784 1.6032666e+09 7 3 0
5.0161686 -0.56176698 -0.9811399 1.6032666e+09 9 2 0
13.030209 -1.118235 0.99203479 1.6032666e+09 3 7 0
5.4158859 -1.3533444 -0.88416773 1.6032666e+09 7 3 0
12.565939 -1.1488974 0.87166137 1.6032666e+09 6 7 0
11.122775 3.3840959 0.47966725 1.6032666e+09 10 4 0
11.270233 -0.0058099106 0.55594385 1.6032666e+09 10 3 0
8.0131378 4.5825624 -0.33857244 1.6032666e+09 10 2 0
8.2156448 0.029911987 -0.18711813 1.6032666e+09 13 1 0
7.5364127 0.020798575 -0.34457362 1.6032666e+09 8 6 0
14.144749 0.16012861 1.2724004 1.6032666e+09 6 7 0
6.5327969 0.15390828 -0.60644406 1.6032666e+09 11 3 0
11.312016 0.81429017 0.57502788 1.6032666e+09 10 5 0
7.062036 0.84666574 -0.45756736 1.6032666e+09 14 5 0
8.4149933 0.5050438 -0.13443194 1.6032666e+09 29 5 0
11.163399 1.3837097 0.53742254 1.6032666e+09 30 3 0
13.788199 -4.2559834 1.184044 1.6032666e+09 18 8 0
5.930922 -4.4765105 -0.52203643 1.6032666e+09 63 3 0
11.326165 1.5732 0.60162818 1.6032666e+09 16 8 0
7.0048213 1.0829489 -0.48265579 1.6032666e+09 22 4 0
8.3028631 0.92224663 -0.16080977 1.6032666e+09 20 4 0
14.117033 1.4290522 1.2727109 1.6032666e+09 8 7 0
6.3465018 1.4519342 -0.63924897 1.6032666e+09 37 1 0
9.4909935 2.6525106 0.11148357 1.6032666e+09 12 2 0
7.0347991 1.5742544 -0.46549654 1.6032666e+09 10 5 0
8.2661896 1.8190527 -0.17219551 1.6032666e+09 8 3 0
13.616375 -4.6233282 1.115442 1.6032666e+09 8 7 0
5.8102946 4.7182803 -0.90205961 1.6032666e+09 5 3 0
6.9805374 -3.0669341 -0.35640758 1.6032666e+09 39 6 0
7.7333832 -3.0009716 -0.17690453 1.6032666e+09 46 3 0
14.173859 1.9290531 1.2707248 1.6032666e+09 7 7 0
6.5245509 1.9922658 -0.59684253 1.6032666e+09 10 5 0
7.6027975 2.1335502 -0.34445003 1.6032666e+09 10 5 0
7.7183657 1.5119359 -0.29811543 1.6032666e+09 10 3 0
9.1153049 -3.6633391 0.067969225 1.6032666e+09 42 1 0
5.4932013 -3.3941383 -0.70530039 1.6032666e+09 52 1 0
9.4544497 1.7028021 0.12186705 1.6032666e+09 10 5 0
10.207964 1.8173323 0.30290663 1.6032666e+09 7 1 0
9.0940371 -3.0302207 0.10875278 1.6032666e+09 39 5 0
7.9341593 -4.2696643 -0.088832855 1.6032666e+09 55 2 0
5.563005 -3.2715564 -0.69803256 1.6032666e+09 52 1 0
5.1776276 3.3747694 -0.99294984 1.6032666e+09 15 2 0
7.8600283 -3.3626094 -0.12925979 1.6032666e+09 43 1 0
6.9532037 -3.451503 -0.34366956 1.6032666e+09 39 5 0
9.8832264 0.667274 0.218904 1.6032666e+09 15 1 0
10.168153 0.76798183 0.30003113 1.6032666e+09 14 5 0
8.901289 4.6312475 -0.11533378 1.6032666e+09 13 5 0
8.8508577 -3.9844322 0.085120939 1.6032666e+09 28 5 0
9.960619 -3.3161829 0.2955839 1.6032666e+09 32 6 0
10.131739 -4.1004577 0.31842601 1.6032666e+09 34 1 0
13.674429 -2.1013975 1.1418244 1.6032666e+09 19 7 0
5.7146616 -2.454031 -0.76363337 1.6032666e+09 52 4 0
5.1731625 -2.4490542 -0.93550605 1.6032666e+09 41 3 0
6.9813576 -0.58198088 -0.49053636 1.6032666e+09 7 1 0
7.8729992 -0.80988288 -0.2719495 1.6032666e+09 6 6 0
13.767209 4.2573223 1.0932057 1.6032666e+09 7 6 0
6.2795 4.4994421 -0.77087283 1.6032666e+09 8 4 0
11.1657 3.1091564 0.49034497 1.6032666e+09 8 4 0
13.591884 -3.3300092 1.1445034 1.6032666e+09 6 6 0
6.0058036 -3.4166508 -0.5766958 1.6032666e+09 52 1 0
7.030468 -2.0722618 -0.48389563 1.6032666e+09 14 5 0
8.0797157 -2.081013 -0.21748467 1.6032666e+09 17 6 0
7.6146317 3.517493 -0.39207348 1.6032666e+09 10 5 0
8.0066204 2.8678014 -0.2773017 1.6032666e+09 28 5 0
13.011246 -2.021327 0.98212451 1.6032666e+09 19 7 0
5.5506024 -2.0583892 -0.86829412 1.6032666e+09 8 3 0
4.9383407 -1.5864785 -1.0082349 1.6032666e+09 9 2 0
7.0560503 3.3276412 -0.51772618 1.6032666e+09 10 5 0
8.4685068 -2.3448677 -0.10301638 1.6032666e+09 40 1 0
7.6460543 -2.2711241 -0.34028658 1.6032666e+09 33 3 0
5.2906065 2.8618133 -0.95268601 1.6032666e+09 27 3 0
6.8680253 -1.5034381 -0.51506549 1.6032666e+09 7 1 0
11.671959 2.6439209 0.62382865 1.6032666e+09 10 4 0
13.714444 -3.0453007 1.181722 1.6032666e+09 3 8 0
5.7753849 -3.2839291 -0.64868379 1.6032666e+09 40 4 0
7.0083308 -1.4148443 -0.49383551 1.6032666e+09 8 4 0
7.8550014 -0.91166431 -0.27181917 1.6032666e+09 6 6 0
14.387304 3.5305893 1.2614619 1.6032666e+09 23 7 0
6.5442619 3.7752881 -0.66098917 1.6032666e+09 10 5 0
8.0811853 4.2198391 -0.30031195 1.6032666e+09 10 2 0
13.657547 1.7358011 1.1603557 1.6032666e+09 7 7 0
5.9196491 2.0359595 -0.75958133 1.6032666e+09 9 2 0
5.3038182 1.7630545 -0.90350723 1.6032666e+09 13 3 0
6.7304444 -3.1648381 -0.41417718 1.6032666e+09 48 1 0
7.425209 -2.9035769 -0.23754421 1.6032666e+09 48 1 0
11.755526 4.4767356 0.58621591 1.6032666e+09 10 6 0
6.4364862 -3.4177456 -0.46660227 1.6032666e+09 53 3 0
7.3240566 -3.3259726 -0.25259748 1.6032666e+09 39 5 0
7.4505181 2.9817407 -0.41506216 1.6032666e+09 18 0 0
8.2123728 2.7569981 -0.22295162 1.6032666e+09 30 3 0
11.888371 3.5830457 0.65482891 1.6032666e+09 13 5 0
13.792059 2.6624861 1.1581049 1.6032666e+09 7 7 0
5.8667274 2.5375473 -0.78483868 1.6032666e+09 16 4 0
5.3466535 2.5584023 -0.92189217 1.6032666e+09 22 3 0
6.546309 -2.4241259 -0.53726542 1.6032666e+09 40 1 0
7.3632264 -2.6108594 -0.27135369 1.6032666e+09 34 6 0
7.3723621 4.3900194 -0.48909265 1.6032666e+09 10 2 0
4.8280458 -3.9312668 -0.85305202 1.6032666e+09 39 1 0
12.25099 4.7022991 0.71889472 1.6032666e+09 21 9 0
13.669073 0.56303751 1.1577549 1.6032666e+09 11 7 0
6.2166119 0.31925452 -0.67716116 1.6032666e+09 13 3 0
5.1347094 0.5477168 -0.95266861 1.6032666e+09 12 1 0
6.7747421 -3.9026999 -0.36574367 1.6032666e+09 36 3 0
7.3648567 -4.0365109 -0.20687906 1.6032666e+09 40 2 0
7.1678753 2.484576 -0.46207613 1.6032666e+09 14 2 0
8.2640324 2.1120555 -0.18795356 1.6032666e+09 11 3 0
4.8134947 -3.2773831 -0.88925856 1.6032666e+09 63 1 0
7.3628774 -0.039852731 -0.38979444 1.6032666e+09 12 2 0
8.0250168 -0.042107001 -0.23217343 1.6032666e+09 14 5 0
9.4503765 3.2297578 0.075936869 1.6032666e+09 14 5 0
7.2664189 -2.3783042 -0.41471159 1.6032666e+09 51 1 0
7.7794623 -2.3766387 -0.23814927 1.6032666e+09 40 1 0
14.264279 2.6603746 1.2670343 1.6032666e+09 7 7 0
6.5262179 2.5976479 -0.62910056 1.6032666e+09 42 5 0
7.6228828 2.8981729 -0.36946478 1.6032666e+09 21 5 0
7.9294858 2.5900402 -0.27658018 1.6032666e+09 12 1 0
9.3697186 3.4931357 0.050311029 1.6032666e+09 10 2 0
6.7534919 2.9849665 -0.5828951 1.6032666e+09 24 5 0
14.322331 2.982147 1.2648413 1.6032666e+09 14 7 0
9.8247805 1.1620562 0.21030308 1.6032666e+09 13 1 0
10.285349 1.3579395 0.32585782 1.6032666e+09 33 1 0
7.5398798 0.84333408 -0.35391825 1.6032666e+09 12 1 0
8.808856 0.81892234 -0.047043525 1.6032666e+09 16 1 0
13.806618 0.18154874 1.1910273 1.6032666e+09 3 8 0
6.1968913 0.064159155 -0.69312185 1.6032666e+09 8 4 0
7.5658031 -0.76795036 -0.35689974 1.6032666e+09 7 1 0
5.152308 -0.73962015 -0.96512246 1.6032666e+09 15 1 0
6.1760321 -0.87680876 -0.70039392 1.6032666e+09 10 4 0
9.723753 -3.3290462 0.25095779 1.6032666e+09 39 5 0
10.663656 -3.4060647 0.44630435 1.6032666e+09 37 6 0
10.927931 -4.4157491 0.5351876 1.6032666e+09 54 7 0
8.1477013 3.4316974 -0.2681483 1.6032666e+09 7 3 0
8.1383915 4.4329267 -0.30486253 1.6032666e+09 4 4 0
4.9537926 4.1391153 -1.0968478 1.6032666e+09 7 0 0
12.30623 4.3956242 0.72725511 1.6032666e+09 10 6 0
13.40863 4.4541593 1.0131211 1.6032666e+09 6 9 0
4.8292346 3.7332275 -1.1036073 1.6032666e+09 10 2 0
12.354204 3.3451014 0.77448511 1.6032666e+09 10 5 0
5.6585546 3.6792049 -0.87865204 1.6032666e+09 10 2 0
13.38735 3.6797926 1.0146955 1.6032666e+09 8 7 0
8.9201899 1.9515911 -0.012315803 1.6032666e+09 10 3 0
7.9776793 1.1527945 -0.23454082 1.6032666e+09 14 5 0
7.6042395 1.5208913 -0.3306703 1.6032666e+09 14 5 0
12.177179 2.6895387 0.75335634 1.6032666e+09 10 4 0
12.712387 2.2049429 0.90319347 1.6032666e+09 6 6 0
10.103489 1.5398786 0.27572656 1.6032666e+09 40 3 0
10.93942 1.5638249 0.48771772 1.6032666e+09 19 6 0
11.85701 1.8984172 0.70694381 1.6032666e+09 14 5 0
8.9031925 1.1050743 -0.0068655014 1.6032666e+09 21 5 0
7.8051124 0.48343772 -0.28548628 1.6032666e+09 11 3 0
7.5158997 1.0850785 -0.36002004 1.6032666e+09 12 1 0
10.144888 1.1856272 0.29860526 1.6032666e+09 32 5 0
10.653439 1.2727818 0.41516799 1.6032666e+09 20 4 0
12.279881 0.8647927 0.81636178 1.6032666e+09 10 4 0
12.702574 0.49338657 0.9126876 1.6032666e+09 6 6 0
11.780346 0.25943038 0.70450354 1.6032666e+09 11 9 0
9.0325108 0.18042499 0.017023904 1.6032666e+09 8 3 0
9.5477753 -0.033548258 0.14587148 1.6032666e+09 8 4 0
8.8221388 -0.49926874 -0.044955518 1.6032666e+09 7 1 0
9.1307697 -1.1394002 0.04158112 1.6032666e+09 9 2 0
10.404972 -1.1171783 0.34121099 1.6032666e+09 15 1 0
14.265032 -0.99734581 1.3050171 1.6032666e+09 6 8 0
6.4997063 -0.91599095 -0.61400598 1.6032666e+09 6 3 0
8.825057 -2.0328689 -0.036962736 1.6032666e+09 10 7 0
8.55725 -3.0346656 0.0021842257 1.6032666e+09 43 1 0
8.3626289 -3.4349816 -0.026419383 1.6032666e+09 42 1 0
9.7184658 4.2661572 0.10912544 1.6032666e+09 10 2 0
9.711318 -4.7624631 0.25965083 1.6032666e+09 86 2 0
10.50389 -4.6370277 0.40086201 1.6032666e+09 70 3 0
8.6180086 4.5457506 -0.18184888 1.6032666e+09 15 2 0
8.6870041 -4.0768623 0.052830555 1.6032666e+09 31 3 0
5.3182487 -4.413672 -0.69074845 1.6032666e+09 66 4 0
11.03489 4.4931836 0.41677636 1.6032666e+09 10 4 0
10.131872 4.4233947 0.19719832 1.6032666e+09 30 2 0
5.0652814 2.9377067 -1.011031 1.6032666e+09 11 1 0
12.359793 2.9707446 0.78814018 1.6032666e+09 28 5 0
5.5069656 2.8183041 -0.88175356 1.6032666e+09 17 2 0
13.4016 3.0879414 1.0588514 1.6032666e+09 15 9 0
11.856074 1.3781488 0.71609318 1.6032666e+09 14 5 0
12.686064 1.2856621 0.91178602 1.6032666e+09 6 6 0
6.6068678 -0.89419639 -0.57524437 1.6032666e+09 9 0 0
8.7822056 -2.5319147 0.029256174 1.6032666e+09 34 1 0
9.864562 -4.4590764 0.298969 1.6032666e+09 70 1 0
9.6120033 4.6616297 0.07051605 1.6032666e+09 22 2 0
8.1057625 4.1558986 -0.29568365 1.6032666e+09 7 2 0
13.025043 4.5552144 0.91327304 1.6032666e+09 13 9 0
5.0508819 4.5782561 -1.0797108 1.6032666e+09 6 3 0
12.315426 4.7883911 0.71241409 1.6032666e+09 22 5 0
5.3137608 4.1110353 -0.99974042 1.6032666e+09 10 2 0
12.907372 4.3241448 0.87469143 1.6032666e+09 6 7 0
10.802965 2.6534023 0.41667223 1.6032666e+09 10 5 0
10.038127 2.4126003 0.24533769 1.6032666e+09 10 3 0
4.8511977 2.5100605 -1.0432042 1.6032666e+09 28 2 0
12.358045 2.6635702 0.79889148 1.6032666e+09 14 5 0
5.5020237 2.1997337 -0.8777588 1.6032666e+09 16 1 0
13.19865 2.4234233 1.0124658 1.6032666e+09 8 6 0
4.8422871 2.017632 -1.0196834 1.6032666e+09 9 2 0
12.32661 1.6394901 0.83770746 1.6032666e+09 17 9 0
5.5469046 1.7362281 -0.8444404 1.6032666e+09 16 1 0
13.175217 1.9029678 1.0209734 1.6032666e+09 8 6 0
5.0596905 1.297629 -0.96856928 1.6032666e+09 12 1 0
12.356436 1.2120894 0.83592921 1.6032666e+09 32 5 0
5.6683393 0.96357858 -0.82138038 1.6032666e+09 15 1 0
13.160688 1.0880314 1.0299244 1.6032666e+09 17 6 0
10.8062 0.82193285 0.44870687 1.6032666e+09 10 5 0
10.187561 0.70645362 0.29120934 1.6032666e+09 10 4 0
4.9759884 0.72059834 -0.97732371 1.6032666e+09 13 2 0
12.383503 0.76730019 0.83996898 1.6032666e+09 14 5 0
5.4961061 0.78369164 -0.85901123 1.6032666e+09 31 3 0
13.16323 0.79735249 1.0316764 1.6032666e+09 6 6 0
12.423065 0.032221541 0.85587215 1.6032666e+09 3 8 0
5.4102273 0.25884062 -0.88412958 1.6032666e+09 12 1 0
13.180387 0.27898327 1.0327135 1.6032666e+09 6 6 0
9.8354683 -1.1688782 0.20638183 1.6032666e+09 9 1 0
10.933651 -1.2421316 0.48082078 1.6032666e+09 7 1 0
9.4327841 -2.0498178 0.11265925 1.6032666e+09 29 5 0
9.6894169 -2.2435088 0.14999083 1.6032666e+09 37 1 0
11.34005 3.9693439 0.50847626 1.6032666e+09 10 5 0
6.2512789 4.5947108 -0.7780425 1.6032666e+09 10 2 0
13.530962 4.7282863 1.0138234 1.6032666e+09 11 7 0
5.737 3.4057157 -0.85883725 1.6032666e+09 10 2 0
13.954638 3.7248769 1.1537347 1.6032666e+09 8 7 0
10.199757 0.20297267 0.29220033 1.6032666e+09 8 4 0
11.558664 -1.401533 0.62715334 1.6032666e+09 6 6 0
10.247316 -2.0355577 0.30499542 1.6032666e+09 19 6 0
10.122322 -1.0873423 0.26928446 1.6032666e+09 6 3 0
10.397971 -2.5753663 0.36562818 1.6032666e+09 38 4 0
10.084446 -2.0621109 0.25387281 1.6032666e+09 30 4 0
10.470539 -3.2129598 0.39688385 1.6032666e+09 42 5 0
9.9146919 -2.4137285 0.25654218 1.6032666e+09 32 4 0
10.40097 -3.557615 0.35683843 1.6032666e+09 41 1 0
10.006384 -3.0166838 0.29996544 1.6032666e+09 34 6 0
11.282375 -3.4901443 0.59262496 1.6032666e+09 21 8 0
11.204348 -4.3894997 0.55378199 1.6032666e+09 33 3 0
6.5414171 4.7143474 -0.70543861 1.6032666e+09 26 5 0
14.308851 4.6393805 1.2274643 1.6032666e+09 3 9 0
6.8511858 4.3179564 -0.61539549 1.6032666e+09 13 2 0
14.252466 4.4749565 1.2211779 1.6032666e+09 6 9 0
6.1267586 3.2176497 -0.75116497 1.6032666e+09 15 2 0
13.869925 3.0911319 1.175609 1.6032666e+09 18 9 0
19.934467 24.681183 2.0357888 1.6032666e+09 76 8 0
20.929691 29.804138 2.103045 1.6032666e+09 47 8 0
20.989653 30.721588 2.1219845 1.6032666e+09 48 8 0
15.928229 25.861013 1.0266639 1.6032666e+09 44 7 0
16.071819 27.050585 1.0115827 1.6032666e+09 45 7 0
16.413027 27.79221 1.0314879 1.6032666e+09 57 7 0
19.698927 25.968372 1.9437743 1.6032666e+09 41 8 0
20.705841 31.365097 2.0493991 1.6032666e+09 49 8 0
16.079563 29.393045 0.8766374 1.6032666e+09 52 7 0
16.200661 30.015152 0.8717165 1.6032666e+09 54 7 0
16.063761 25.197317 1.074296 1.6032666e+09 42 7 0
20.855551 24.73243 2.2299707 1.6032666e+09 75 9 0
22.600693 29.143381 2.4817641 1.6032666e+09 80 9 0
22.857876 30.162926 2.5365851 1.6032666e+09 42 9 0
23.473726 32.530941 2.6650615 1.6032666e+09 47 9 0
17.006071 27.587246 1.2487435 1.6032666e+09 43 8 0
17.173487 29.087757 1.2165083 1.6032666e+09 45 8 0
17.403717 30.592869 1.2470618 1.6032666e+09 47 8 0
17.5494 31.457952 1.2647171 1.6032666e+09 24 8 0
17.737045 32.70583 1.2901658 1.6032666e+09 25 8 0
20.879215 25.915852 2.1836507 1.6032666e+09 66 9 0
23.140663 32.926464 2.5751305 1.6032666e+09 48 9 0
17.182821 31.87801 1.1514888 1.6032666e+09 24 8 0
17.275841 32.653217 1.1672894 1.6032666e+09 25 8 0
19.855301 24.045527 1.9739529 1.6032666e+09 58 9 0
15.728794 26.190073 0.93218511 1.6032666e+09 55 7 0
16.481024 28.284475 1.0233455 1.6032666e+09 47 7 0
16.262165 29.06492 0.98648423 1.6032666e+09 51 7 0
16.30357 29.50457 0.98099291 1.6032666e+09 52 7 0
16.530527 30.758739 0.9843961 1.6032666e+09 56 7 0
16.562405 32.334305 0.95947075 1.6032666e+09 61 7 0
19.118765 24.648148 1.8524281 1.6032666e+09 59 9 0
21.336582 32.053036 2.1657982 1.6032666e+09 49 8 0
19.244934 24.274035 1.8398209 1.6032666e+09 72 9 0
19.511292 26.229073 1.8958764 1.6032666e+09 66 9 0
20.223223 27.532722 2.0099339 1.6032666e+09 72 9 0
20.374201 28.156542 2.0417333 1.6032666e+09 55 9 0
21.037964 31.094263 2.1297927 1.6032666e+09 48 8 0
21.362181 33.03484 2.1824508 1.6032666e+09 25 8 0
16.073418 31.382101 0.86994553 1.6032666e+09 58 7 0
16.318546 31.961105 0.85858476 1.6032666e+09 61 7 0
19.264175 25.804712 1.8308791 1.6032666e+09 48 9 0
20.084391 28.425549 1.9709632 1.6032666e+09 45 8 0
20.292263 28.867767 1.9985865 1.6032666e+09 58 9 0
20.787041 30.621614 2.0463731 1.6032666e+09 48 8 0
14.828409 27.44805 0.64256984 1.6032666e+09 57 7 0
15.326895 30.636166 0.76625699 1.6032666e+09 47 8 0
16.262144 32.890575 0.85322565 1.6032666e+09 64 7 0
16.318394 33.421856 0.84938437 1.6032666e+09 66 7 0
19.059746 26.364115 1.7714112 1.6032666e+09 67 9 0
20.649437 29.588696 2.0243287 1.6032666e+09 46 8 0
21.022787 32.577202 2.1077926 1.6032666e+09 47 9 0
21.184742 32.843098 2.1662591 1.6032666e+09 51 8 0
21.264997 33.596855 2.1821048 1.6032666e+09 26 8 0
14.933901 28.288063 0.63234073 1.6032666e+09 59 7 0
14.925585 28.870289 0.62581658 1.6032666e+09 49 7 0
14.953524 29.256624 0.62124002 1.6032666e+09 51 7 0
16.312347 33.169643 0.93817919 1.6032666e+09 64 7 0
18.892204 26.644447 1.7039943 1.6032666e+09 68 9 0
14.960744 30.247446 0.60991699 1.6032666e+09 54 7 0
14.856247 31.624168 0.6050157 1.6032666e+09 48 8 0
19.695768 29.493801 1.8498967 1.6032666e+09 40 9 0
20.827003 32.126247 2.0695658 1.6032666e+09 50 8 0
14.412914 28.213537 0.56739825 1.6032666e+09 44 8 0
14.708817 30.327456 0.60456496 1.6032666e+09 47 8 0
19.363359 28.460266 1.8040205 1.6032666e+09 76 9 0
19.398029 28.726309 1.8165812 1.6032666e+09 57 9 0
20.600895 32.175591 2.0022693 1.6032666e+09 46 9 0
14.404009 28.890877 0.4838534 1.6032666e+09 50 7 0
14.569659 29.502558 0.58984226 1.6032666e+09 46 8 0
14.401361 29.829828 0.47373566 1.6032666e+09 53 7 0
14.965326 31.290674 0.59795552 1.6032666e+09 58 7 0
15.026409 32.568661 0.58286601 1.6032666e+09 62 7 0
15.091336 33.541107 0.5712285 1.6032666e+09 65 7 0
20.2894 31.207146 1.9507706 1.6032666e+09 44 9 0
19.158352 27.750893 1.7672807 1.6032666e+09 73 9 0
18.873182 26.724741 1.7146307 1.6032666e+09 68 9 0
18.419168 25.520029 1.6494201 1.6032666e+09 31 9 0
21.410574 34.229378 2.1956902 1.6032666e+09 26 8 0
16.487247 35.041782 0.91729152 1.6032666e+09 35 7 0
21.496861 36.656689 2.1756213 1.6032666e+09 28 8 0
22.170788 38.781643 2.2481823 1.6032666e+09 31 8 0
22.265903 39.711414 2.2728298 1.6032666e+09 32 8 0
22.304913 40.196712 2.2856588 1.6032666e+09 33 8 0
22.646637 41.765907 2.3281147 1.6032666e+09 35 8 0
16.555397 39.77972 0.80643594 1.6032666e+09 21 7 0
18.060135 34.955093 1.3361578 1.6032666e+09 26 8 0
18.318972 37.264259 1.383381 1.6032666e+09 28 8 0
16.350578 35.042011 0.83880103 1.6032666e+09 71 7 0
18.269217 40.463261 1.3281761 1.6032666e+09 33 8 0
16.481928 33.726822 0.9380877 1.6032666e+09 33 7 0
22.890915 36.567177 2.4601026 1.6032666e+09 31 9 0
17.292612 42.177685 1.0327662 1.6032666e+09 35 8 0
22.515057 36.281353 2.4018896 1.6032666e+09 31 9 0
16.080448 34.067852 0.83831352 1.6032666e+09 67 7 0
16.565676 36.173 0.92049587 1.6032666e+09 27 8 0
16.072691 35.791378 0.8179124 1.6032666e+09 55 7 0
21.840559 34.651772 2.2254105 1.6032666e+09 27 9 0
22.545919 37.493767 2.3761017 1.6032666e+09 34 9 0
15.915049 36.316483 0.7845794 1.6032666e+09 27 8 0
16.449776 37.056133 0.82501888 1.6032666e+09 58 7 0
16.449177 37.970272 0.81909168 1.6032666e+09 40 7 0
16.50024 38.363281 0.91282284 1.6032666e+09 30 8 0
16.192757 38.422756 0.82374257 1.6032666e+09 30 8 0
16.402769 40.087078 0.85472608 1.6032666e+09 32 8 0
16.684755 41.619595 0.88379991 1.6032666e+09 34 8 0
21.66501 35.302074 2.15973 1.6032666e+09 28 9 0
22.434923 38.339222 2.3160493 1.6032666e+09 36 9 0
16.557219 42.776768 0.79311991 1.6032666e+09 36 8 0
21.200268 34.347164 2.1372178 1.6032666e+09 26 9 0
15.063742 33.856941 0.56775087 1.6032666e+09 49 7 0
16.644344 39.091553 0.92692989 1.6032666e+09 31 8 0
16.007154 39.023293 0.75993508 1.6032666e+09 31 8 0
16.059282 39.542084 0.76909798 1.6032666e+09 31 8 0
16.806641 40.644722 0.9562127 1.6032666e+09 33 8 0
16.263178 40.878471 0.79321265 1.6032666e+09 33 8 0
21.196913 34.658085 2.1291316 1.6032666e+09 26 9 0
21.666403 35.705128 2.1887946 1.6032666e+09 29 9 0
22.067007 36.653198 2.2421772 1.6032666e+09 32 9 0
22.365202 38.044468 2.3128307 1.6032666e+09 35 9 0
23.613653 41.822151 2.5170457 1.6032666e+09 45 9 0
15.034698 34.174877 0.56425083 1.6032666e+09 33 7 0
16.349911 35.359272 0.90476882 1.6032666e+09 27 8 0
15.305043 35.623466 0.67676944 1.6032666e+09 27 8 0
16.392113 42.130531 0.78909308 1.6032666e+09 35 8 0
15.174742 34.651165 0.66029435 1.6032666e+09 26 8 0
22.91572 40.257141 2.4276559 1.6032666e+09 40 9 0
20.984121 33.778042 2.084018 1.6032666e+09 24 9 0
6.6854038 12.23868 -1.0469522 1.6032666e+09 34 2 0
11.55859 12.833023 0.1055287 1.6032666e+09 43 5 0
12.291772 13.126044 0.27950647 1.6032666e+09 57 6 0
12.078428 13.725712 0.26138312 1.6032666e+09 60 6 0
7.3382959 12.203143 -0.90624034 1.6032666e+09 57 3 0
12.018169 8.5023127 0.45993748 1.6032666e+09 57 6 0
5.7802305 12.188535 -1.24562 1.6032666e+09 55 3 0
10.504057 4.8183646 0.26834741 1.6032666e+09 18 4 0
8.3479815 7.1488786 -0.33702525 1.6032666e+09 63 2 0
11.943997 12.672057 0.18977106 1.6032666e+09 60 7 0
6.9018698 11.10125 -1.0168984 1.6032666e+09 71 4 0
4.8004646 12.126053 -1.4857054 1.6032666e+09 35 3 0
11.597368 5.1484981 0.52552432 1.6032666e+09 26 7 0
11.806871 5.7571764 0.56048483 1.6032666e+09 28 5 0
11.747025 6.762898 0.50867772 1.6032666e+09 25 7 0
12.052465 7.3682199 0.58112478 1.6032666e+09 66 5 0
10.318215 7.1198664 0.15696837 1.6032666e+09 78 7 0
10.658112 8.2757015 0.14184776 1.6032666e+09 70 7 0
10.658773 10.955473 -0.38493377 1.6032666e+09 32 6 0
11.671041 13.445439 0.18569474 1.6032666e+09 64 7 0
11.277503 13.67584 0.07739003 1.6032666e+09 66 7 0
9.5796442 12.446773 -0.36809146 1.6032666e+09 74 4 0
9.0513096 13.368304 -0.44174716 1.6032666e+09 66 4 0
8.8297625 14.001852 -0.50080425 1.6032666e+09 72 4 0
4.9062943 11.141686 -1.4886756 1.6032666e+09 33 1 0
13.310966 5.6174669 0.94906986 1.6032666e+09 36 9 0
11.116695 14.384497 0.070989028 1.6032666e+09 66 7 0
11.972145 8.0503654 0.49186718 1.6032666e+09 67 7 0
8.4856787 5.927206 -0.27826017 1.6032666e+09 10 4 0
8.6503096 6.3647246 -0.24203834 1.6032666e+09 6 2 0
12.206689 10.915174 0.0063194893 1.6032666e+09 52 4 0
8.2697325 8.1977854 -0.44507009 1.6032666e+09 43 5 0
11.240942 11.559923 -0.013346352 1.6032666e+09 55 4 0
8.9295368 8.5104723 -0.31455109 1.6032666e+09 90 4 0
7.1591744 7.9656053 -0.70184469 1.6032666e+09 53 3 0
10.316466 10.952566 -0.46066988 1.6032666e+09 49 4 0
10.782997 12.497913 -0.099750355 1.6032666e+09 71 4 0
5.8942604 5.7183785 -0.91975057 1.6032666e+09 6 3 0
7.4394965 8.1442089 -0.64163333 1.6032666e+09 57 5 0
9.8540649 11.69424 -0.30421105 1.6032666e+09 71 4 0
8.8948793 12.469223 -0.54742974 1.6032666e+09 77 4 0
8.0170937 11.033166 -0.76564568 1.6032666e+09 63 4 0
6.9038401 12.678364 -0.96095878 1.6032666e+09 60 3 0
10.547785 5.4969225 0.25871328 1.6032666e+09 16 3 0
10.936029 14.382206 0.011126783 1.6032666e+09 52 5 0
13.261814 6.236527 0.91267586 1.6032666e+09 27 9 0
13.286657 6.6808763 0.90918905 1.6032666e+09 20 8 0
11.173038 6.1914711 0.39164305 1.6032666e+09 30 7 0
11.65407 6.5871577 0.49084556 1.6032666e+09 29 4 0
11.658342 7.4625421 0.4708786 1.6032666e+09 51 5 0
8.3708038 5.4540539 -0.27965698 1.6032666e+09 10 2 0
9.7446938 6.8672886 0.02367761 1.6032666e+09 60 3 0
8.1093445 6.2492471 -0.37368339 1.6032666e+09 9 2 0
7.124063 5.3395791 -0.59399569 1.6032666e+09 10 2 0
10.122395 7.54074 0.081637084 1.6032666e+09 67 4 0
8.2892475 6.3168826 -0.33881551 1.6032666e+09 5 3 0
10.1788 8.5267181 -0.012628676 1.6032666e+09 99 4 0
7.2214565 7.2738571 -0.64496338 1.6032666e+09 94 4 0
13.789524 6.7428236 1.0094357 1.6032666e+09 15 7 0
10.527971 13.035692 -0.086437777 1.6032666e+09 60 7 0
8.4146299 10.793592 -0.90829408 1.6032666e+09 52 4 0
6.0345726 7.589776 -0.93852234 1.6032666e+09 100 4 0
8.2698059 13.436157 -0.62982404 1.6032666e+09 69 4 0
12.81006 7.3841023 0.77966106 1.6032666e+09 60 6 0
4.8685212 7.3456998 -1.2102379 1.6032666e+09 54 2 0
8.1414871 13.687864 -0.6536178 1.6032666e+09 66 4 0
12.766665 7.8687134 0.69906658 1.6032666e+09 81 7 0
4.9466534 8.0756912 -1.2417806 1.6032666e+09 56 3 0
12.638706 8.2747917 0.6228084 1.6032666e+09 62 6 0
4.9051495 8.6503973 -1.3192378 1.6032666e+09 76 3 0
14.221405 13.114154 0.73404306 1.6032666e+09 57 6 0
6.4083166 13.149162 -1.0610572 1.6032666e+09 69 4 0
6.3569946 13.541941 -1.0746989 1.6032666e+09 71 3 0
5.2702212 12.213992 -1.392857 1.6032666e+09 66 4 0
13.570729 7.6060963 0.9630416 1.6032666e+09 80 9 0
13.989269 8.580842 0.96588087 1.6032666e+09 61 9 0
9.3654308 5.8124795 -0.044157978 1.6032666e+09 9 5 0
11.45999 8.5845251 0.30093399 1.6032666e+09 100 4 0
9.6439476 7.1459646 -0.0037749743 1.6032666e+09 71 3 0
5.8811579 11.164237 -1.2314348 1.6032666e+09 45 3 0
14.043141 11.68402 0.65439087 1.6032666e+09 52 7 0
9.5324841 7.9269376 -0.10772015 1.6032666e+09 78 4 0
13.697483 5.4112735 1.0480185 1.6032666e+09 7 9 0
6.0189075 5.4999747 -0.87938297 1.6032666e+09 9 2 0
7.4136381 6.1281056 -0.55547029 1.6032666e+09 8 4 0
8.1942024 7.8153353 -0.43514922 1.6032666e+09 100 4 0
11.498287 11.033909 -0.076170072 1.6032666e+09 50 7 0
7.3239975 6.609725 -0.59107256 1.6032666e+09 17 4 0
13.704356 6.2550311 1.0111803 1.6032666e+09 14 7 0
6.086884 6.1738319 -0.89088053 1.6032666e+09 6 4 0
6.0940518 6.5443578 -0.91068041 1.6032666e+09 6 3 0
9.6547937 11.09068 -0.43663418 1.6032666e+09 63 4 0
6.0386181 8.2548609 -1.0056404 1.6032666e+09 100 4 0
8.1792097 12.846867 -0.62365448 1.6032666e+09 60 3 0
7.959548 13.969273 -0.69957328 1.6032666e+09 69 3 0
6.3182621 12.355202 -1.1259099 1.6032666e+09 66 4 0
12.53973 11.057956 0.18152574 1.6032666e+09 40 6 0
4.8486872 10.853025 -1.6327074 1.6032666e+09 36 3 0
12.498808 12.744945 0.31591907 1.6032666e+09 60 7 0
4.9024839 12.705406 -1.4335142 1.6032666e+09 69 4 0
10.971845 5.239265 0.36661893 1.6032666e+09 36 4 0
10.728405 5.7714429 0.29128823 1.6032666e+09 12 5 0
10.563342 7.3069925 0.21891168 1.6032666e+09 96 4 0
