# .PCD v0.7 - Point Cloud Data file format
VERSION 0.7
FIELDS x y z time intensity laser_id label
SIZE 4 4 4 8 4 2 2
TYPE F F F F F U U
COUNT 1 1 1 1 1 1 1
WIDTH 907
HEIGHT 1
VIEWPOINT 0 0 0 1 0 0 0
POINTS 907
DATA ascii
44.522232 -22.051363 11.342056 1.6032666e+09 28 14 0
43.420116 -24.266115 11.373653 1.6032666e+09 14 14 0
43.091583 -24.259338 11.309573 1.6032666e+09 14 14 0
43.514423 -24.684214 11.643081 1.6032666e+09 39 14 0
40.515362 -24.13398 11.008593 1.6032666e+09 46 14 0
41.641064 -21.837351 12.48834 1.6032666e+09 15 15 0
38.494228 -18.36702 8.2968502 1.6032666e+09 12 13 0
4.5652399 -2.4744673 -0.98024905 1.6032666e+09 40 1 0
4.2295947 -2.4644756 -1.2243977 1.6032666e+09 44 0 0
2.5724196 -4.5264373 -1.3950348 1.6032666e+09 2 0 0
4.6124821 -2.4568129 -1.1254241 1.6032666e+09 72 1 0
3.9652541 -2.4750264 -1.2877903 1.6032666e+09 48 0 0
4.9133582 -2.4230826 -1.0440501 1.6032666e+09 75 1 0
4.7799463 -2.4572427 -1.069362 1.6032666e+09 51 0 0
58.376144 -24.702827 14.521317 1.6032666e+09 27 14 0
58.063908 -24.742403 14.571429 1.6032666e+09 28 14 0
59.985409 -24.65785 14.858147 1.6032666e+09 29 14 0
59.961067 -24.3111 14.937651 1.6032666e+09 29 14 0
24.28512 -5.4889221 5.7115793 1.6032666e+09 28 14 0
21.579519 -11.859915 5.7394848 1.6032666e+09 16 14 0
18.378437 -6.7433438 5.1977668 1.6032666e+09 43 15 0
21.117695 -12.092302 5.6808953 1.6032666e+09 12 14 0
18.290554 -6.142354 5.1231675 1.6032666e+09 24 15 0
21.567293 -11.929421 4.9607539 1.6032666e+09 27 13 0
20.72213 -5.2567878 5.679369 1.6032666e+09 40 15 0
18.511681 -6.4322309 5.1909075 1.6032666e+09 40 15 0
21.440153 -11.807989 5.6202188 1.6032666e+09 45 14 0
18.638309 -6.7589865 5.2528324 1.6032666e+09 30 15 0
18.621155 -6.6879697 5.2535238 1.6032666e+09 29 15 0
20.061378 -5.0237598 5.4384904 1.6032666e+09 24 15 0
19.75787 -11.880752 5.5628948 1.6032666e+09 12 14 0
20.777309 -5.1244173 5.6275587 1.6032666e+09 31 15 0
20.965117 -5.2621832 4.9903145 1.6032666e+09 3 14 0
21.658428 -12.258698 5.0893641 1.6032666e+09 7 13 0
21.532339 -11.838573 5.6542683 1.6032666e+09 13 14 0
19.424425 -5.4636183 5.4067302 1.6032666e+09 44 15 0
21.171452 -11.852936 5.7178249 1.6032666e+09 30 14 0
19.947424 -5.2413549 5.3953667 1.6032666e+09 18 15 0
22.711935 -5.2110925 6.1820202 1.6032666e+09 56 15 0
22.684729 -5.2850733 5.379488 1.6032666e+09 26 14 0
24.247257 -5.2033672 5.7536006 1.6032666e+09 24 14 0
18.200485 -7.0266314 5.2276278 1.6032666e+09 36 15 0
23.14699 -5.3171382 5.4376674 1.6032666e+09 30 14 0
19.687399 -5.3653846 5.3232045 1.6032666e+09 34 15 0
18.538071 -6.6697111 5.2109442 1.6032666e+09 40 15 0
22.68059 -5.1727571 6.110651 1.6032666e+09 50 15 0
20.040792 -5.3408051 5.4100819 1.6032666e+09 19 15 0
23.16177 -5.2105012 6.2796135 1.6032666e+09 26 15 0
22.649481 -5.4346609 5.3007536 1.6032666e+09 33 14 0
19.205904 -5.7347045 5.2595673 1.6032666e+09 33 15 0
19.489798 -7.3244762 5.4872451 1.6032666e+09 13 15 0
21.964239 -11.827785 5.0140491 1.6032666e+09 20 13 0
22.017176 -11.975924 5.1106839 1.6032666e+09 3 13 0
21.397762 -4.5498309 3.5481286 1.6032666e+09 29 12 0
23.024744 -4.3098326 3.7207448 1.6032666e+09 60 12 0
21.47514 -4.4566369 3.4624138 1.6032666e+09 53 12 0
14.873575 -2.2718291 1.4540452 1.6032666e+09 10 10 0
22.882692 -4.303051 3.6877866 1.6032666e+09 64 12 0
21.431055 -4.8100486 3.47879 1.6032666e+09 52 12 0
10.274217 46.594952 -0.83964139 1.6032666e+09 28 6 0
10.478514 51.874203 -0.92375588 1.6032666e+09 38 7 0
10.342191 48.61451 -0.86755913 1.6032666e+09 27 7 0
37.644646 56.991146 6.4622936 1.6032666e+09 4 10 0
37.818771 57.107037 6.0392027 1.6032666e+09 4 10 0
43.793793 55.532246 8.6836796 1.6032666e+09 63 11 0
43.705608 55.004562 8.6261568 1.6032666e+09 63 11 0
37.74271 58.475555 6.0890489 1.6032666e+09 4 10 0
10.210785 8.7372532 0.10118701 1.6032666e+09 61 4 0
10.93341 9.0290899 0.077749208 1.6032666e+09 23 6 0
14.178511 12.606722 0.64541703 1.6032666e+09 57 7 0
7.6765013 12.141646 -0.87176865 1.6032666e+09 68 4 0
13.136612 9.0288658 0.68615466 1.6032666e+09 78 7 0
11.472447 9.1895723 0.2284537 1.6032666e+09 15 7 0
14.308975 12.517098 0.67706949 1.6032666e+09 50 8 0
7.8759198 9.1677732 -0.6150974 1.6032666e+09 16 5 0
7.8776627 11.108998 -0.75319791 1.6032666e+09 26 5 0
11.825178 8.8505678 0.49435094 1.6032666e+09 41 8 0
8.9853573 8.9381437 -0.36065349 1.6032666e+09 95 4 0
9.2054539 12.258969 -0.53865075 1.6032666e+09 71 4 0
6.3484135 8.8456774 -0.99792421 1.6032666e+09 95 4 0
5.1300621 8.944068 -1.3312465 1.6032666e+09 23 0 0
13.248888 7.1233315 0.93550301 1.6032666e+09 52 9 0
10.179571 9.067646 -0.063586019 1.6032666e+09 50 4 0
14.344896 8.8551197 1.0328351 1.6032666e+09 19 9 0
11.831645 9.0729656 0.38457826 1.6032666e+09 32 8 0
11.783432 9.1895313 0.35918301 1.6032666e+09 18 7 0
9.8348522 12.336506 -0.36912829 1.6032666e+09 71 4 0
12.669476 8.9302197 0.57491565 1.6032666e+09 13 5 0
8.4748383 9.0320206 -0.51039726 1.6032666e+09 48 3 0
7.0377259 8.9025745 -0.82491654 1.6032666e+09 54 3 0
13.716583 8.6822023 0.83941072 1.6032666e+09 61 7 0
7.7907248 6.9153428 -0.45181298 1.6032666e+09 54 2 0
9.8175516 9.0856295 -0.17796591 1.6032666e+09 41 7 0
10.109957 11.702056 -0.21046011 1.6032666e+09 46 7 0
10.166851 11.187283 -0.26058426 1.6032666e+09 49 7 0
6.6613503 8.9492283 -0.90578043 1.6032666e+09 37 4 0
5.3325443 8.5513773 -1.2285651 1.6032666e+09 100 4 0
5.5385823 9.081028 -1.2345754 1.6032666e+09 62 4 0
9.4481583 9.1227703 -0.27391475 1.6032666e+09 31 6 0
13.638543 8.9430285 0.85244203 1.6032666e+09 53 9 0
11.495507 8.9210072 0.30150059 1.6032666e+09 48 8 0
13.677711 8.9606781 0.85694903 1.6032666e+09 53 9 0
9.494338 8.8823738 -0.22612271 1.6032666e+09 71 3 0
12.174302 8.9464216 0.47886154 1.6032666e+09 14 7 0
8.1601334 8.9257298 -0.54713446 1.6032666e+09 77 4 0
7.6928158 8.9740286 -0.67469597 1.6032666e+09 85 4 0
6.4281297 8.9122505 -0.96653366 1.6032666e+09 24 5 0
7.965992 11.522324 -0.73626232 1.6032666e+09 42 6 0
5.1936274 8.7132864 -1.2507874 1.6032666e+09 95 4 0
12.596603 12.430615 0.3089076 1.6032666e+09 40 8 0
8.9362202 6.9166679 -0.1972471 1.6032666e+09 33 7 0
6.1030316 12.129252 -1.1879327 1.6032666e+09 33 5 0
21.666403 35.705128 2.1887946 1.6032666e+09 29 9 0
22.91572 40.257141 2.4276559 1.6032666e+09 40 9 0
24.220686 44.313416 2.6466296 1.6032666e+09 50 9 0
15.305891 35.953682 0.68207496 1.6032666e+09 27 8 0
21.196913 34.658085 2.1291316 1.6032666e+09 26 9 0
10.068318 38.625248 -0.69673496 1.6032666e+09 20 7 0
9.943429 37.607769 -0.67900336 1.6032666e+09 19 7 0
-1.4251337 39.106415 -3.3053434 1.6032666e+09 29 5 0
-2.5209594 40.343224 -3.5496471 1.6032666e+09 33 4 0
3.8334057 40.402859 -2.1269336 1.6032666e+09 23 6 0
4.1201811 37.803951 -1.9929534 1.6032666e+09 21 6 0
-1.3197381 49.309517 -3.5153954 1.6032666e+09 44 5 0
-3.3629339 45.096718 -3.9327381 1.6032666e+09 38 5 0
2.9436049 49.112347 -2.5784881 1.6032666e+09 30 6 0
2.6031051 52.659344 -2.7631295 1.6032666e+09 35 6 0
2.7220967 51.425331 -2.6988609 1.6032666e+09 33 6 0
2.8452861 50.418476 -2.6465249 1.6032666e+09 31 6 0
-4.7033648 50.41367 -4.4297776 1.6032666e+09 46 5 0
44.755322 57.573654 11.54987 1.6032666e+09 54 12 0
-4.6973891 33.313541 -4.021306 1.6032666e+09 52 4 0
-4.5616322 31.971687 -3.9653852 1.6032666e+09 50 4 0
38.377239 44.594803 7.2616019 1.6032666e+09 62 11 0
44.014664 45.817951 10.062805 1.6032666e+09 39 12 0
38.136375 52.049599 5.6452518 1.6032666e+09 4 10 0
-12.474754 7.5334005 -1.9571135 1.6032666e+09 30 3 0
-13.101531 7.7230525 0.73625469 1.6032666e+09 7 7 0
-13.236894 7.6526942 1.2589976 1.6032666e+09 17 8 0
-13.567219 8.0425549 2.8189223 1.6032666e+09 19 12 0
-12.584517 7.5915184 -1.3799933 1.6032666e+09 35 4 0
-13.016795 7.6116071 0.58888906 1.6032666e+09 19 8 0
-13.051412 7.568017 0.50090265 1.6032666e+09 31 7 0
-13.261027 7.6679883 1.6140625 1.6032666e+09 26 10 0
-12.332077 7.6503196 -2.1816187 1.6032666e+09 3 3 0
-13.421564 7.6843476 2.0701408 1.6032666e+09 25 9 0
-13.552265 6.6217775 3.1805253 1.6032666e+09 9 11 0
-12.918399 7.6502829 0.10923032 1.6032666e+09 25 7 0
-13.757645 6.0231729 3.1452284 1.6032666e+09 4 13 0
-12.71421 7.6398873 -0.59407479 1.6032666e+09 23 6 0
-12.778254 7.6411057 -0.55778319 1.6032666e+09 29 5 0
-13.306315 7.5984082 1.5938609 1.6032666e+09 26 9 0
-12.950408 7.6216083 -0.014001664 1.6032666e+09 29 6 0
-13.566231 7.6747041 2.7538741 1.6032666e+09 17 10 0
-12.420208 7.543097 -2.1350875 1.6032666e+09 30 3 0
-13.387781 7.6214924 2.1886775 1.6032666e+09 32 11 0
-13.618233 7.6682196 3.0226634 1.6032666e+09 36 10 0
-13.525713 7.5850725 2.6228151 1.6032666e+09 34 11 0
-12.279613 7.6559534 -2.6536515 1.6032666e+09 4 2 0
-13.676641 7.6587601 3.3920462 1.6032666e+09 19 13 0
-12.685985 7.6521683 -0.77158183 1.6032666e+09 8 6 0
-12.574737 7.6999502 -1.6948986 1.6032666e+09 4 3 0
-12.955227 7.6571293 0.26922154 1.6032666e+09 11 8 0
-13.143254 7.657372 0.9506582 1.6032666e+09 30 7 0
-13.585877 7.0530281 3.0897782 1.6032666e+09 11 13 0
-12.185329 7.5881939 -2.791651 1.6032666e+09 11 2 0
-13.350483 7.6569343 1.8477293 1.6032666e+09 27 10 0
-12.338958 7.6594243 -2.3002126 1.6032666e+09 3 3 0
-13.462543 7.5994706 1.7590146 1.6032666e+09 5 9 0
-12.338366 7.6425147 -2.4622889 1.6032666e+09 23 2 0
-13.315742 7.6569376 1.7347745 1.6032666e+09 13 10 0
-12.838299 7.6696782 -0.38041717 1.6032666e+09 7 5 0
-12.628709 7.6053905 -1.2542168 1.6032666e+09 35 4 0
-13.708056 7.6131878 3.2607861 1.6032666e+09 22 12 0
-12.697597 7.5689807 -0.7782405 1.6032666e+09 26 6 0
-12.483322 7.6434088 -1.8302028 1.6032666e+09 35 3 0
-12.996106 7.6130371 0.38019434 1.6032666e+09 28 7 0
-13.078029 7.6106858 0.88138348 1.6032666e+09 30 9 0
-12.772133 7.5433316 -0.91434443 1.6032666e+09 5 5 0
-13.170299 7.6161394 1.3310424 1.6032666e+09 24 10 0
-13.463881 7.6553369 2.4471738 1.6032666e+09 33 11 0
-12.886503 7.5563154 -0.21315405 1.6032666e+09 22 6 0
-13.297515 7.6017265 1.8747195 1.6032666e+09 45 11 0
-12.43724 7.6096101 -1.7902608 1.6032666e+09 27 4 0
-13.427928 7.5937667 2.3182902 1.6032666e+09 32 11 0
-13.570191 7.6042571 2.8515987 1.6032666e+09 34 11 0
-13.038278 7.6586876 0.79247117 1.6032666e+09 4 9 0
26.075535 49.77206 2.9447353 1.6032666e+09 58 9 0
25.366356 47.209103 2.8086617 1.6032666e+09 55 9 0
-6.3890295 -5.9021497 3.1795125 1.6032666e+09 22 13 0
-5.1377344 -5.7495379 3.5957043 1.6032666e+09 31 14 0
-8.8917923 -4.9504585 1.9168972 1.6032666e+09 12 9 0
-5.3900967 -5.8046145 3.4598794 1.6032666e+09 28 15 0
-6.1887903 -4.9966412 2.6046443 1.6032666e+09 1 14 0
-6.409771 -5.9157796 3.1355021 1.6032666e+09 33 15 0
-6.2590337 -5.0641022 2.4600787 1.6032666e+09 1 14 0
-10.626463 -6.3109102 1.7658848 1.6032666e+09 12 11 0
-7.2193723 -5.9751201 2.8310657 1.6032666e+09 18 15 0
-6.8079271 -5.913744 3.0445056 1.6032666e+09 19 12 0
-8.8751678 -5.0195575 2.1727076 1.6032666e+09 18 13 0
-9.9253483 -6.2571282 2.0335815 1.6032666e+09 13 12 0
-9.0608063 -6.1735945 2.2665422 1.6032666e+09 4 12 0
-7.0162935 -4.9982896 2.5168424 1.6032666e+09 1 15 0
-8.2284956 -6.0813303 2.5569768 1.6032666e+09 12 14 0
-7.4524775 -6.0242205 2.8175316 1.6032666e+09 6 11 0
-12.427016 -6.5426049 1.3052807 1.6032666e+09 10 10 0
-5.9100618 -5.858387 3.3011541 1.6032666e+09 3 15 0
-8.391468 -5.0903897 -0.11763908 1.6032666e+09 40 7 0
-8.5935345 -4.9800696 0.54473686 1.6032666e+09 31 7 0
-10.103225 -6.2725186 1.9532226 1.6032666e+09 24 11 0
-8.9606457 -4.9754505 2.4608643 1.6032666e+09 31 14 0
-7.5832067 -4.9623518 2.4250181 1.6032666e+09 1 15 0
-8.7098122 -6.1305776 2.3562872 1.6032666e+09 17 13 0
-8.5408182 -6.1137776 2.4217203 1.6032666e+09 6 14 0
-13.959976 -6.7004886 0.81152141 1.6032666e+09 4 9 0
-12.47919 -6.5295134 1.2322079 1.6032666e+09 32 10 0
-8.7756157 -5.0136471 1.9645696 1.6032666e+09 18 13 0
-8.5910892 -4.9590626 0.34792265 1.6032666e+09 15 6 0
-13.575032 -6.6017313 0.934542 1.6032666e+09 4 9 0
-8.6208763 -5.0497503 1.226737 1.6032666e+09 21 11 0
-8.2950363 -5.0064778 -0.837919 1.6032666e+09 73 4 0
-8.5953007 -5.0656095 0.94329929 1.6032666e+09 17 10 0
-8.2595577 -5.0129232 -1.1904566 1.6032666e+09 90 4 0
-8.7980747 -5.0172353 1.8830237 1.6032666e+09 20 11 0
-8.4193935 -4.9822116 -0.17478296 1.6032666e+09 51 7 0
-5.9482546 -5.8442717 3.3075936 1.6032666e+09 20 15 0
-8.7526188 -5.0428081 1.4673485 1.6032666e+09 15 10 0
-8.3539028 -4.9868221 -0.51393521 1.6032666e+09 46 6 0
-10.239831 -6.3050313 1.8976146 1.6032666e+09 8 12 0
-8.21558 -5.0990009 -0.85000384 1.6032666e+09 72 5 0
-8.5342379 -4.9670434 0.51749802 1.6032666e+09 35 9 0
-8.101593 -5.1248302 -1.4863224 1.6032666e+09 82 3 0
-8.4456959 -5.0644655 0.23107488 1.6032666e+09 38 8 0
-8.0826588 -5.1306663 -1.7128209 1.6032666e+09 32 2 0
-9.241415 -6.1717639 2.2156773 1.6032666e+09 30 11 0
-7.1562309 -4.9866891 2.337136 1.6032666e+09 1 15 0
-8.6095915 -6.1820641 2.4470174 1.6032666e+09 18 14 0
-7.8624535 -6.0480433 2.655097 1.6032666e+09 18 15 0
-8.1404943 -5.1144452 -1.1804266 1.6032666e+09 100 4 0
-8.5472755 -5.0508204 0.86859411 1.6032666e+09 22 10 0
28.792496 36.71656 3.7703536 1.6032666e+09 34 9 0
25.35673 44.040081 2.8737986 1.6032666e+09 50 9 0
32.165215 39.948303 4.4871259 1.6032666e+09 4 10 0
29.194656 20.73712 4.1735845 1.6032666e+09 48 10 0
29.621983 16.502375 4.3995585 1.6032666e+09 90 11 0
27.971937 16.653433 4.0875602 1.6032666e+09 22 11 0
29.903143 18.677664 4.4205718 1.6032666e+09 51 11 0
31.733669 20.629612 4.7400107 1.6032666e+09 86 11 0
28.578978 19.131981 4.2227731 1.6032666e+09 25 11 0
29.970741 20.786692 4.4933696 1.6032666e+09 56 11 0
26.807444 16.498512 3.8649645 1.6032666e+09 43 11 0
26.606333 16.761398 3.8610649 1.6032666e+09 21 11 0
-16.067652 -52.196289 -4.7780519 1.6032666e+09 54 5 0
26.10527 -23.238201 5.9221268 1.6032666e+09 81 12 0
25.707958 -23.975155 7.3574214 1.6032666e+09 43 13 0
27.937284 -17.155687 5.8076057 1.6032666e+09 27 12 0
26.443367 -21.015251 5.7300544 1.6032666e+09 66 12 0
26.085003 -24.08672 7.4195848 1.6032666e+09 35 13 0
31.487223 -20.844561 7.4491639 1.6032666e+09 9 13 0
33.46843 -17.377119 7.4159017 1.6032666e+09 9 13 0
26.258717 -22.130959 5.8194036 1.6032666e+09 92 12 0
33.413475 -17.385824 7.3653975 1.6032666e+09 10 13 0
26.195251 -16.559935 5.1095238 1.6032666e+09 20 12 0
26.527039 -16.612305 5.0298195 1.6032666e+09 21 12 0
25.481825 -23.910318 7.2607493 1.6032666e+09 35 13 0
26.500784 -20.759081 5.4075131 1.6032666e+09 23 12 0
28.527094 -22.594799 7.0689659 1.6032666e+09 19 13 0
26.753517 -20.794281 5.4428558 1.6032666e+09 24 12 0
27.615744 -21.009926 5.85706 1.6032666e+09 23 12 0
31.4216 -20.910765 7.3103299 1.6032666e+09 10 13 0
31.297754 -21.307112 7.3134065 1.6032666e+09 10 13 0
31.15624 -21.131184 7.2409692 1.6032666e+09 10 13 0
25.456903 -23.195635 5.4775629 1.6032666e+09 50 12 0
26.986057 -19.71475 5.3092365 1.6032666e+09 12 12 0
31.511147 -20.911631 7.3630848 1.6032666e+09 10 13 0
25.646126 -19.024408 5.0261006 1.6032666e+09 11 12 0
26.714687 -21.133228 5.4134445 1.6032666e+09 61 12 0
27.085075 -20.904724 5.4786439 1.6032666e+09 24 12 0
29.275663 -16.820656 7.7950039 1.6032666e+09 7 14 0
25.73773 -19.010183 5.0678511 1.6032666e+09 11 12 0
-8.5133295 40.398674 -5.0692773 1.6032666e+09 16 4 0
48.222847 -23.967939 14.176867 1.6032666e+09 17 15 0
46.256653 -20.534117 13.307743 1.6032666e+09 16 15 0
44.628319 -24.448864 11.827576 1.6032666e+09 67 14 0
47.763592 -22.327209 13.878281 1.6032666e+09 17 15 0
46.497284 -21.336647 13.466087 1.6032666e+09 17 15 0
48.036144 -22.994429 12.205278 1.6032666e+09 52 14 0
47.417629 -22.482042 13.802037 1.6032666e+09 66 15 0
46.59127 -24.053278 12.007917 1.6032666e+09 17 14 0
47.565865 -22.34199 13.95256 1.6032666e+09 18 15 0
49.45639 -23.015278 12.488357 1.6032666e+09 76 14 0
49.967884 -23.177746 12.522992 1.6032666e+09 37 14 0
45.451141 -20.7614 13.266569 1.6032666e+09 17 15 0
51.352158 -23.481829 12.925564 1.6032666e+09 20 14 0
44.825874 -22.114351 11.507443 1.6032666e+09 41 14 0
44.872425 -22.552179 11.513969 1.6032666e+09 54 14 0
45.798229 -19.906075 13.267925 1.6032666e+09 17 15 0
45.904533 -24.427561 11.970576 1.6032666e+09 73 14 0
45.67812 -21.87759 11.692733 1.6032666e+09 16 14 0
49.277336 -23.345583 12.483769 1.6032666e+09 19 14 0
46.596088 -24.339552 12.108253 1.6032666e+09 18 14 0
44.896332 -21.876564 11.504721 1.6032666e+09 64 14 0
46.281567 -24.296713 11.971345 1.6032666e+09 69 14 0
44.932339 -17.432173 12.896469 1.6032666e+09 33 15 0
45.822922 -24.565565 12.112843 1.6032666e+09 28 14 0
46.711327 -24.285299 12.154555 1.6032666e+09 18 14 0
45.1119 -22.452654 11.633569 1.6032666e+09 16 14 0
45.300705 -22.783577 13.353755 1.6032666e+09 32 15 0
44.627823 -21.688944 11.376245 1.6032666e+09 66 14 0
47.94257 -22.826361 12.258932 1.6032666e+09 18 14 0
52.417564 -22.314745 11.073792 1.6032666e+09 28 13 0
44.748146 -21.777321 11.323336 1.6032666e+09 43 14 0
45.033894 -18.277212 13.022739 1.6032666e+09 16 15 0
45.5215 -19.604654 13.280524 1.6032666e+09 17 15 0
44.71188 -24.673208 13.564019 1.6032666e+09 35 15 0
46.592438 -20.646927 13.655293 1.6032666e+09 17 15 0
19.071474 -5.7487464 3.6699805 1.6032666e+09 48 12 0
19.951656 -5.4320993 3.2423444 1.6032666e+09 81 11 0
18.510561 -14.307742 2.9368105 1.6032666e+09 17 10 0
18.773296 -13.901819 2.9288268 1.6032666e+09 17 10 0
14.869564 -9.0631905 2.4130805 1.6032666e+09 9 10 0
15.439541 -7.5070748 2.4602954 1.6032666e+09 33 10 0
16.958227 -6.4544535 4.845809 1.6032666e+09 67 15 0
18.711185 -5.7031207 3.6159081 1.6032666e+09 31 12 0
18.783911 -5.5294089 4.6462121 1.6032666e+09 40 14 0
20.326138 -5.3168354 3.8804348 1.6032666e+09 36 12 0
21.117558 -5.574204 4.540659 1.6032666e+09 12 13 0
20.569593 -12.673011 3.5186329 1.6032666e+09 10 11 0
20.245918 -12.027376 3.4055426 1.6032666e+09 39 11 0
20.32131 -11.909328 3.40484 1.6032666e+09 9 11 0
16.413658 -8.4466343 3.3230519 1.6032666e+09 4 12 0
17.579773 -9.1543798 3.0008798 1.6032666e+09 15 11 0
16.355629 -7.7914767 3.2617095 1.6032666e+09 4 12 0
16.477074 -7.3867097 2.7368047 1.6032666e+09 41 11 0
16.359234 -7.2415352 3.2517421 1.6032666e+09 100 12 0
21.708 -9.8190966 4.131496 1.6032666e+09 3 12 0
18.810188 -8.1811914 3.0242419 1.6032666e+09 8 11 0
19.041069 -5.6923728 4.7001886 1.6032666e+09 42 14 0
20.648788 -6.3445754 3.7665753 1.6032666e+09 28 12 0
16.492941 -8.6841612 3.2677894 1.6032666e+09 2 12 0
17.750805 -9.0980873 2.8662195 1.6032666e+09 67 11 0
18.023207 -8.922121 2.883301 1.6032666e+09 92 11 0
20.893814 -5.3973646 4.388761 1.6032666e+09 35 13 0
21.191217 -5.22683 3.7951367 1.6032666e+09 26 12 0
14.978261 -9.0466232 2.886162 1.6032666e+09 6 11 0
16.391071 -8.0790081 3.3216345 1.6032666e+09 7 12 0
16.890186 -8.0216179 2.5830312 1.6032666e+09 10 10 0
16.466118 -7.6744719 2.7525535 1.6032666e+09 42 11 0
16.403584 -7.2179213 3.0718586 1.6032666e+09 100 12 0
16.802126 -7.3035474 2.5765388 1.6032666e+09 100 11 0
20.158251 -6.3310208 3.7231183 1.6032666e+09 28 12 0
20.221584 -5.7342582 3.6737831 1.6032666e+09 22 12 0
16.493406 -7.9797421 3.0493398 1.6032666e+09 2 12 0
16.617744 -7.6734629 2.316227 1.6032666e+09 100 10 0
16.563751 -7.3224616 3.5841255 1.6032666e+09 40 13 0
18.963415 -6.2802525 3.2856207 1.6032666e+09 47 12 0
20.325596 -5.6085262 3.4512632 1.6032666e+09 37 12 0
18.75897 -13.425134 2.9990368 1.6032666e+09 16 10 0
18.19849 -10.693769 2.7609179 1.6032666e+09 18 11 0
15.484737 -10.390128 2.0162382 1.6032666e+09 33 9 0
17.778309 -10.09834 2.7282972 1.6032666e+09 18 11 0
17.545347 -9.7200899 2.6820424 1.6032666e+09 26 11 0
16.302416 -7.3729677 3.5315542 1.6032666e+09 49 13 0
22.471371 -5.4058542 4.6899581 1.6032666e+09 21 13 0
20.471952 -5.4476824 3.4659951 1.6032666e+09 54 12 0
21.721333 -5.2025886 3.6231315 1.6032666e+09 29 12 0
20.2013 -11.832722 3.8072047 1.6032666e+09 9 12 0
16.627148 -7.3890061 2.3059299 1.6032666e+09 100 10 0
22.158955 -9.8673935 3.944113 1.6032666e+09 14 12 0
19.946135 -5.7672582 4.063334 1.6032666e+09 38 13 0
17.350342 -10.156704 2.5704675 1.6032666e+09 18 11 0
20.990528 -11.883367 4.7088628 1.6032666e+09 4 13 0
16.630329 -8.9747362 2.8508072 1.6032666e+09 7 11 0
18.337599 -7.5431118 3.1978302 1.6032666e+09 2 12 0
22.375708 -5.2439137 3.9732895 1.6032666e+09 34 12 0
20.332684 -5.3134565 3.3510449 1.6032666e+09 65 11 0
19.042358 -5.5770116 2.9767501 1.6032666e+09 45 11 0
20.990641 -5.3685908 3.5201154 1.6032666e+09 34 12 0
21.11866 -12.260676 4.7530837 1.6032666e+09 5 13 0
22.134878 -9.1813812 3.8214097 1.6032666e+09 5 12 0
17.521343 -6.7825699 2.3714232 1.6032666e+09 8 11 0
16.985682 -6.290143 3.5668118 1.6032666e+09 87 13 0
16.727762 -7.3234401 3.004946 1.6032666e+09 85 12 0
19.756783 -5.9749713 4.0062084 1.6032666e+09 100 13 0
23.957203 -5.4037619 4.35676 1.6032666e+09 36 12 0
20.234966 -5.2136979 4.8673563 1.6032666e+09 25 14 0
21.034307 -5.3626146 4.2124276 1.6032666e+09 50 13 0
23.813828 -5.4007568 3.8752654 1.6032666e+09 31 12 0
21.718737 -10.807313 3.8071234 1.6032666e+09 13 12 0
17.826868 -6.5995378 4.3503981 1.6032666e+09 67 14 0
19.061132 -5.9725561 3.1968975 1.6032666e+09 30 12 0
17.395662 -9.5440674 3.1845067 1.6032666e+09 8 12 0
17.876228 -9.1563148 3.1891911 1.6032666e+09 39 12 0
18.00662 -9.0656157 3.2008586 1.6032666e+09 6 12 0
18.053476 -7.5650225 3.1059167 1.6032666e+09 3 12 0
17.323437 -6.5196853 4.2575793 1.6032666e+09 11 14 0
18.221605 -6.1821375 4.4215407 1.6032666e+09 71 14 0
21.303005 -5.641552 4.5776901 1.6032666e+09 23 13 0
19.169767 -5.9317055 3.9010322 1.6032666e+09 24 13 0
20.40877 -5.2483449 4.8466024 1.6032666e+09 13 14 0
19.309826 -6.127017 3.7266562 1.6032666e+09 8 12 0
23.430401 -5.486526 4.6671505 1.6032666e+09 45 13 0
16.639629 -8.7580233 2.9591413 1.6032666e+09 2 12 0
17.129089 -7.9648628 2.3001113 1.6032666e+09 27 11 0
18.102581 -7.6670074 3.0968418 1.6032666e+09 6 12 0
17.185671 -6.6605816 4.2428207 1.6032666e+09 54 14 0
22.390141 -5.3926501 4.465929 1.6032666e+09 37 13 0
23.404116 -5.5505157 4.6648321 1.6032666e+09 26 13 0
22.119139 -5.4337759 4.3933744 1.6032666e+09 48 13 0
20.400158 -5.2862568 4.8801622 1.6032666e+09 45 14 0
21.372385 -5.0632429 3.4665363 1.6032666e+09 43 12 0
21.371616 -12.468556 4.8095317 1.6032666e+09 5 13 0
21.572216 -12.384542 4.8351002 1.6032666e+09 5 13 0
17.181662 -9.5357132 2.4127693 1.6032666e+09 38 11 0
21.869789 -12.047883 3.9546638 1.6032666e+09 35 12 0
21.942457 -11.795043 4.842351 1.6032666e+09 11 13 0
17.477476 -9.3909864 3.1424561 1.6032666e+09 3 12 0
16.461357 -8.7011309 3.6192651 1.6032666e+09 2 13 0
17.847511 -9.1679916 3.1514437 1.6032666e+09 34 12 0
16.506491 -8.3488798 3.5956051 1.6032666e+09 2 13 0
16.947556 -8.0810194 2.3368931 1.6032666e+09 36 11 0
16.585808 -7.6812901 2.8949766 1.6032666e+09 24 12 0
17.77681 -7.5641232 3.0598586 1.6032666e+09 3 12 0
18.171032 -7.5996871 2.9712884 1.6032666e+09 22 11 0
18.632462 -7.1113191 4.6042981 1.6032666e+09 24 14 0
17.917988 -6.2561116 4.4594674 1.6032666e+09 82 14 0
17.822147 -6.0116692 2.3094242 1.6032666e+09 100 11 0
17.947927 -5.8185177 3.6548829 1.6032666e+09 8 13 0
19.037325 -5.9908924 3.4382224 1.6032666e+09 71 12 0
18.877138 -5.6965165 4.5184045 1.6032666e+09 38 14 0
17.317791 -7.0109091 2.9591146 1.6032666e+09 14 12 0
16.701492 -8.7461805 2.9860215 1.6032666e+09 2 12 0
18.768845 -10.00059 3.3683474 1.6032666e+09 4 12 0
18.830568 -10.202897 3.3921254 1.6032666e+09 4 12 0
20.820477 -11.851721 3.7944748 1.6032666e+09 6 12 0
20.179186 -14.367121 3.923377 1.6032666e+09 7 12 0
23.56505 -5.5224004 4.886673 1.6032666e+09 15 13 0
17.438099 -6.1580334 2.9290793 1.6032666e+09 13 12 0
11.718649 -2.3170273 0.65134215 1.6032666e+09 65 3 0
8.8375349 -4.7924571 0.75637883 1.6032666e+09 54 4 0
9.429512 -4.6483483 0.28506747 1.6032666e+09 66 6 0
10.268051 -4.6507998 0.69708419 1.6032666e+09 42 8 0
10.328238 -4.4708705 0.84656328 1.6032666e+09 93 8 0
11.450049 -4.4185457 0.69203019 1.6032666e+09 60 7 0
9.2002487 -2.3260491 0.026049659 1.6032666e+09 50 6 0
10.221097 -4.4874659 1.3251632 1.6032666e+09 87 10 0
7.3208017 -2.3641548 -0.4367213 1.6032666e+09 60 4 0
8.2384396 -2.3644996 -0.21239486 1.6032666e+09 52 4 0
5.7300515 -4.9487619 2.0359635 1.6032666e+09 28 15 0
10.350693 -4.5039082 0.73973632 1.6032666e+09 100 6 0
6.0246592 -4.9493361 1.3611948 1.6032666e+09 5 12 0
10.11025 -4.4668479 2.1986358 1.6032666e+09 78 13 0
10.261232 -4.4708142 1.4593678 1.6032666e+09 100 11 0
7.1389794 -2.3762779 -0.47845596 1.6032666e+09 70 3 0
7.7228217 -2.3552487 -0.33992532 1.6032666e+09 52 4 0
9.0805912 -2.3314486 -0.0068569649 1.6032666e+09 70 1 0
10.357103 -4.473609 0.99442607 1.6032666e+09 28 10 0
11.162673 -2.4391732 0.50343031 1.6032666e+09 57 3 0
6.7535734 -2.4058704 -0.57790112 1.6032666e+09 72 1 0
9.9978065 -4.4738564 2.5513933 1.6032666e+09 20 14 0
9.9946251 -2.3008692 0.22217356 1.6032666e+09 70 3 0
5.8299699 -2.4102657 -0.8096087 1.6032666e+09 63 1 0
8.5853195 -2.3294275 -0.12530454 1.6032666e+09 67 1 0
6.1792455 -4.6876869 -0.38316572 1.6032666e+09 79 6 0
5.1508117 -2.4408133 -0.96835661 1.6032666e+09 67 1 0
6.3802872 -2.4198971 -0.67520827 1.6032666e+09 53 0 0
8.0495119 -2.3846891 -0.13564581 1.6032666e+09 26 6 0
8.50072 -2.3392079 -0.13835223 1.6032666e+09 31 7 0
5.6984029 -2.4649401 -0.6854403 1.6032666e+09 36 3 0
9.902154 -4.4935207 2.8837812 1.6032666e+09 36 15 0
6.10179 -2.4187446 -0.7456333 1.6032666e+09 68 4 0
13.85001 1.8012621 1.2219235 1.6032666e+09 10 10 0
10.050428 -4.5927272 1.7350094 1.6032666e+09 88 12 0
5.3921947 -2.442724 -0.9113127 1.6032666e+09 65 3 0
10.26527 -4.6586933 0.98625439 1.6032666e+09 36 10 0
9.4957294 -2.3241072 0.1017988 1.6032666e+09 49 2 0
10.02404 -4.4880114 2.5437713 1.6032666e+09 70 14 0
10.127676 -2.2929983 0.25923008 1.6032666e+09 58 5 0
5.9164753 -2.4192884 -0.78483868 1.6032666e+09 62 4 0
6.6423135 -2.3982069 -0.5942021 1.6032666e+09 62 4 0
7.0247884 -2.4113634 -0.36887446 1.6032666e+09 34 1 0
7.6454296 -2.3799434 -0.347619 1.6032666e+09 56 3 0
8.2572985 -2.3394444 -0.20289798 1.6032666e+09 58 3 0
14.266381 2.9310696 1.2742169 1.6032666e+09 11 10 0
6.5974889 24.937387 -1.1773109 1.6032666e+09 34 6 0
13.617796 25.795713 0.50915653 1.6032666e+09 20 8 0
24.450417 25.205843 3.0833535 1.6032666e+09 64 9 0
21.102108 34.176304 2.1237526 1.6032666e+09 26 8 0
24.588581 25.622818 3.1069279 1.6032666e+09 55 10 0
19.713144 29.851179 1.8747789 1.6032666e+09 20 9 0
28.473564 -5.5095191 5.0502849 1.6032666e+09 29 12 0
30.367928 -5.4767866 7.1481357 1.6032666e+09 43 14 0
26.186277 -5.2877402 6.2192335 1.6032666e+09 37 14 0
28.346148 -5.0129747 7.5384488 1.6032666e+09 43 15 0
29.998249 -4.9718938 7.9365482 1.6032666e+09 64 15 0
26.344791 -5.2902784 5.403389 1.6032666e+09 17 13 0
26.373194 -12.859882 5.9061055 1.6032666e+09 24 13 0
31.703777 -5.713624 6.4158883 1.6032666e+09 7 13 0
32.005665 -5.1735792 6.4636431 1.6032666e+09 79 13 0
26.409311 -5.2032204 5.3465371 1.6032666e+09 9 13 0
27.571209 -5.1131644 5.5606656 1.6032666e+09 49 13 0
31.302002 -5.058413 7.3140178 1.6032666e+09 20 14 0
26.690723 -12.458116 5.8014684 1.6032666e+09 13 13 0
25.466549 -5.71033 6.8977652 1.6032666e+09 17 15 0
31.930769 -6.0474119 6.5538754 1.6032666e+09 13 13 0
25.772474 -5.3415017 6.8945718 1.6032666e+09 17 15 0
27.21244 -6.1277642 7.2950234 1.6032666e+09 31 15 0
31.781126 -5.3466063 7.3498998 1.6032666e+09 70 14 0
27.386488 -5.8616786 7.3688035 1.6032666e+09 23 15 0
26.549583 -5.2482677 5.2486682 1.6032666e+09 6 13 0
27.187666 -5.0498185 7.272254 1.6032666e+09 45 15 0
29.886654 -5.2929015 5.8791137 1.6032666e+09 24 13 0
31.432123 -4.9707942 7.2584667 1.6032666e+09 75 14 0
32.436275 -5.0040026 7.5073185 1.6032666e+09 56 14 0
33.803169 -4.9725652 6.6407013 1.6032666e+09 87 13 0
27.788836 -5.3190351 6.5374918 1.6032666e+09 36 14 0
27.279158 -5.1316786 7.3644624 1.6032666e+09 36 15 0
31.501427 -5.3779221 7.3244481 1.6032666e+09 54 14 0
33.947315 -5.6509757 6.6954103 1.6032666e+09 46 13 0
33.628986 -4.9897971 6.5813079 1.6032666e+09 72 13 0
29.876141 -5.8350487 8.0023508 1.6032666e+09 56 15 0
33.393974 -5.9046493 6.5390553 1.6032666e+09 17 13 0
31.775499 -5.3146214 7.3838305 1.6032666e+09 75 14 0
26.446898 -12.762099 5.6881151 1.6032666e+09 8 13 0
27.096067 -5.2814913 6.365726 1.6032666e+09 43 14 0
27.668386 -5.0630879 6.4865947 1.6032666e+09 27 14 0
29.74579 -5.3864298 5.9774389 1.6032666e+09 13 13 0
32.144844 -5.2557073 6.2848563 1.6032666e+09 63 13 0
25.541256 -5.2627463 5.0309043 1.6032666e+09 31 13 0
26.565567 -5.2654142 5.2592454 1.6032666e+09 27 13 0
26.968948 -5.6154332 7.2315831 1.6032666e+09 29 15 0
30.827305 -5.7605591 8.397541 1.6032666e+09 17 15 0
27.812397 -5.2184105 5.4806719 1.6032666e+09 50 13 0
27.872181 -5.0126653 6.4611692 1.6032666e+09 37 14 0
31.393467 -5.56425 7.3527417 1.6032666e+09 21 14 0
31.470592 -5.4192643 7.3658209 1.6032666e+09 28 14 0
27.779593 -5.008534 6.4424109 1.6032666e+09 24 14 0
31.716516 -4.9945335 7.4064898 1.6032666e+09 85 14 0
31.80447 -4.9640427 6.2672429 1.6032666e+09 56 13 0
33.785336 -4.9803224 7.7417746 1.6032666e+09 56 14 0
32.256645 -5.1554937 6.5825028 1.6032666e+09 94 13 0
26.295486 -12.508518 5.6601582 1.6032666e+09 8 13 0
33.665318 -5.7576203 6.7254796 1.6032666e+09 34 13 0
30.573841 -6.6661754 8.3847017 1.6032666e+09 35 15 0
32.157787 -5.1669559 6.3104143 1.6032666e+09 90 13 0
31.963625 -7.1499023 8.7692127 1.6032666e+09 27 15 0
25.257612 -5.6827846 5.9769497 1.6032666e+09 19 14 0
25.681484 -5.3175569 4.4753261 1.6032666e+09 24 12 0
24.750477 -5.559607 4.9308863 1.6032666e+09 35 13 0
26.956772 -5.3822451 4.6712399 1.6032666e+09 70 12 0
25.370962 -14.677465 4.6423497 1.6032666e+09 10 12 0
24.556669 45.322071 2.7014778 1.6032666e+09 52 9 0
16.750797 45.356308 0.84396344 1.6032666e+09 39 8 0
-7.5724263 -34.75388 -3.0414417 1.6032666e+09 24 5 0
-11.918187 -43.535713 -3.9490266 1.6032666e+09 37 5 0
-9.1120615 -37.294319 -3.358808 1.6032666e+09 28 5 0
-4.9711671 -43.030354 -2.2701247 1.6032666e+09 25 6 0
28.107405 12.875283 3.9791856 1.6032666e+09 76 11 0
25.70619 12.543304 3.5120311 1.6032666e+09 72 11 0
28.151497 5.6661196 4.5481763 1.6032666e+09 10 12 0
29.767014 7.4107261 4.858542 1.6032666e+09 11 12 0
6.2190213 -7.7597904 0.94867605 1.6032666e+09 91 5 0
7.5300894 -11.470011 1.4010247 1.6032666e+09 37 7 0
8.1933365 -7.1073503 0.45329446 1.6032666e+09 24 3 0
11.207553 -9.9635372 3.5858157 1.6032666e+09 16 13 0
10.690147 -9.1405993 1.404114 1.6032666e+09 23 7 0
12.74472 -9.4847517 1.3644646 1.6032666e+09 33 7 0
12.133558 -8.2681961 0.87614131 1.6032666e+09 100 6 0
12.154697 -8.1627979 1.9483761 1.6032666e+09 75 9 0
5.7536583 -7.1269279 0.83405912 1.6032666e+09 42 5 0
6.3312111 -11.370932 1.4524633 1.6032666e+09 52 8 0
6.1582484 -7.9963036 0.85271966 1.6032666e+09 19 6 0
6.1948028 -7.6217451 0.87371832 1.6032666e+09 84 6 0
6.9425378 -11.021738 1.6217204 1.6032666e+09 39 8 0
6.8721123 -11.256835 1.4518726 1.6032666e+09 41 8 0
6.9251661 -11.1096 1.8399912 1.6032666e+09 57 9 0
7.1090693 -11.147246 1.6232289 1.6032666e+09 48 8 0
8.0060062 -11.261892 1.4551535 1.6032666e+09 31 8 0
7.1754045 -7.7278929 0.85755277 1.6032666e+09 19 6 0
7.3389268 -7.8057446 1.130895 1.6032666e+09 36 7 0
7.5609717 -7.8050938 1.0243405 1.6032666e+09 45 6 0
9.1122713 -9.1227818 0.74777913 1.6032666e+09 8 6 0
8.1454067 -6.5984612 0.14443317 1.6032666e+09 6 3 0
8.8780365 -8.7385035 0.77303976 1.6032666e+09 11 6 0
10.350356 -11.164483 1.0402334 1.6032666e+09 27 7 0
9.3092384 -8.6613903 0.76761144 1.6032666e+09 24 6 0
9.5625572 -8.6484241 0.76229924 1.6032666e+09 8 6 0
10.870048 -10.599212 3.5732908 1.6032666e+09 14 13 0
10.539876 -9.9670582 2.6357071 1.6032666e+09 95 11 0
11.380045 -9.454813 2.5018494 1.6032666e+09 52 10 0
10.992807 -9.2228308 2.5879877 1.6032666e+09 35 11 0
11.414455 -9.8077459 2.2669826 1.6032666e+09 45 10 0
11.662412 -8.4153719 1.8169529 1.6032666e+09 18 9 0
11.889755 -8.2186375 1.9432279 1.6032666e+09 85 9 0
12.015999 -8.0873375 1.4499149 1.6032666e+09 100 8 0
8.6521053 -11.219433 1.6922178 1.6032666e+09 54 9 0
7.7266164 -7.6815281 1.2036642 1.6032666e+09 37 6 0
5.5457315 -4.9572563 2.39557 1.6032666e+09 33 15 0
6.1210403 -4.9975643 -0.025602907 1.6032666e+09 49 2 0
7.3462095 -7.0820084 1.1374755 1.6032666e+09 57 8 0
7.8372121 -7.9041085 1.4522576 1.6032666e+09 31 9 0
13.296497 -13.186642 1.8660793 1.6032666e+09 23 9 0
8.8950081 -7.1704478 0.66626352 1.6032666e+09 29 6 0
11.267217 -10.297348 1.1920497 1.6032666e+09 12 8 0
11.817111 -10.617707 1.1990327 1.6032666e+09 9 8 0
11.996752 -10.822362 3.0803199 1.6032666e+09 17 12 0
13.253055 -13.413341 1.7997587 1.6032666e+09 4 9 0
11.720703 -10.153482 3.0203724 1.6032666e+09 16 12 0
12.799788 -9.425684 2.9945736 1.6032666e+09 21 12 0
6.9027195 -6.7223425 1.2332437 1.6032666e+09 36 8 0
8.1692638 -7.4321251 1.529776 1.6032666e+09 21 9 0
11.227121 -10.645976 1.619553 1.6032666e+09 19 8 0
11.056685 -10.146472 1.6120708 1.6032666e+09 15 8 0
12.473703 -10.527878 3.0889914 1.6032666e+09 40 12 0
12.945582 -10.244639 3.1441936 1.6032666e+09 21 12 0
12.395079 -9.048481 3.3489611 1.6032666e+09 26 13 0
12.461424 -8.1181984 1.3907564 1.6032666e+09 100 7 0
10.561644 -5.4500499 0.41058251 1.6032666e+09 84 5 0
5.0776215 -6.3837161 -0.24266785 1.6032666e+09 32 2 0
11.512461 -8.3035173 1.0854256 1.6032666e+09 2 7 0
5.5932393 -4.9609652 2.2866926 1.6032666e+09 45 14 0
5.8441639 -5.1889791 1.2382289 1.6032666e+09 31 10 0
6.5980091 -5.8265643 1.5626671 1.6032666e+09 18 10 0
7.9589033 -7.7436118 1.5094028 1.6032666e+09 18 10 0
10.659712 -9.4948368 1.0367663 1.6032666e+09 17 6 0
8.8028259 -6.9822507 0.54270411 1.6032666e+09 100 7 0
12.103415 -10.946763 1.6758955 1.6032666e+09 36 9 0
12.185892 -10.305216 3.8635023 1.6032666e+09 7 14 0
12.156017 -10.530424 2.9562111 1.6032666e+09 22 12 0
12.38096 -9.8738136 3.8580451 1.6032666e+09 20 14 0
12.546913 -9.7118988 3.8194237 1.6032666e+09 20 14 0
12.128525 -8.5139656 1.6731263 1.6032666e+09 25 9 0
12.479221 -9.0476427 3.2782457 1.6032666e+09 24 13 0
13.579697 -9.4153023 2.9828522 1.6032666e+09 7 12 0
6.7443438 -5.4012079 0.31432968 1.6032666e+09 82 5 0
6.3240547 -6.7137518 1.7763934 1.6032666e+09 42 12 0
5.9662471 -5.4498782 0.13460936 1.6032666e+09 37 4 0
6.7987986 -5.5080357 0.3631267 1.6032666e+09 57 6 0
10.043021 -8.7937889 1.53643 1.6032666e+09 7 10 0
8.7461643 -7.241488 1.0371039 1.6032666e+09 9 9 0
11.924506 -10.736067 1.2514551 1.6032666e+09 28 9 0
12.16674 -11.198727 1.6869956 1.6032666e+09 15 9 0
12.040695 -10.440458 3.2554946 1.6032666e+09 17 13 0
10.8901 -8.6436892 1.591107 1.6032666e+09 40 8 0
5.645402 -6.0700026 0.83553505 1.6032666e+09 81 8 0
5.6741114 -6.0707045 0.52517807 1.6032666e+09 88 6 0
12.481335 -9.6987906 3.2136993 1.6032666e+09 30 13 0
12.041792 -9.1940966 1.6703442 1.6032666e+09 39 10 0
12.428263 -9.3656187 1.7024177 1.6032666e+09 10 10 0
9.4336987 -6.5530353 0.70091784 1.6032666e+09 54 8 0
12.090061 -8.4465637 1.5879791 1.6032666e+09 23 9 0
13.634893 -9.1845093 2.5904863 1.6032666e+09 6 11 0
5.1481233 -6.2565498 1.5356477 1.6032666e+09 30 11 0
5.2107563 -6.3404703 0.43637136 1.6032666e+09 100 7 0
11.684761 -8.4080935 1.0815724 1.6032666e+09 23 7 0
6.0252085 -6.4537048 1.7201124 1.6032666e+09 25 12 0
7.2069645 -6.0097742 0.54593039 1.6032666e+09 58 5 0
11.591032 -10.644741 3.1877167 1.6032666e+09 14 13 0
12.341114 -11.069229 2.8471193 1.6032666e+09 10 12 0
8.5277634 -6.8164368 0.85624921 1.6032666e+09 25 8 0
12.438234 -10.858235 2.6406872 1.6032666e+09 13 11 0
11.680272 -10.065388 1.6205288 1.6032666e+09 10 10 0
7.3656101 -5.4170136 0.67756397 1.6032666e+09 63 8 0
9.0931578 -6.9476418 0.95896339 1.6032666e+09 12 7 0
10.845832 -8.5458136 1.173757 1.6032666e+09 29 8 0
11.844532 -9.4188099 1.5929316 1.6032666e+09 71 10 0
12.071518 -9.4305954 2.6395662 1.6032666e+09 22 12 0
11.517271 -8.5653534 1.4355832 1.6032666e+09 12 9 0
12.085711 -8.9283638 1.5806688 1.6032666e+09 20 10 0
12.491316 -8.3103561 1.4605567 1.6032666e+09 25 9 0
13.16057 -8.0282869 2.5854421 1.6032666e+09 100 12 0
13.499445 -8.0672045 1.1343495 1.6032666e+09 100 9 0
5.2780457 -5.8647738 1.946187 1.6032666e+09 10 14 0
5.7722187 -5.7746682 -0.068487786 1.6032666e+09 76 4 0
5.9142089 -6.0254006 1.5172344 1.6032666e+09 42 12 0
8.5536032 -7.38627 1.5803839 1.6032666e+09 23 11 0
12.095949 -10.5024 3.7568147 1.6032666e+09 22 14 0
11.704149 -9.8062544 1.552785 1.6032666e+09 10 10 0
10.630476 -8.4476223 0.90648931 1.6032666e+09 10 7 0
12.581544 -9.9596033 3.7533398 1.6032666e+09 22 14 0
10.999398 -8.5132189 0.98724538 1.6032666e+09 33 9 0
11.463062 -9.0010195 2.0099614 1.6032666e+09 67 11 0
13.240564 -8.3078136 2.0542178 1.6032666e+09 77 10 0
10.832485 -8.4213753 1.4411626 1.6032666e+09 28 8 0
5.2156801 -6.6350965 2.0597401 1.6032666e+09 5 14 0
4.9689069 -5.9146509 1.9187684 1.6032666e+09 10 14 0
9.9250965 -8.6184387 0.77732044 1.6032666e+09 12 5 0
5.2172356 -5.8042302 -0.51283121 1.6032666e+09 50 4 0
11.646151 -8.3867159 1.4487191 1.6032666e+09 3 8 0
5.9559412 -6.5041075 2.1966696 1.6032666e+09 10 14 0
12.285995 -9.3077698 2.7612274 1.6032666e+09 21 12 0
5.4893594 -5.7517815 -0.13325319 1.6032666e+09 97 2 0
11.711611 -10.700311 3.1619506 1.6032666e+09 4 13 0
12.375007 -10.903909 3.2793655 1.6032666e+09 26 13 0
7.0332079 -5.5561123 0.67657089 1.6032666e+09 19 9 0
5.3152523 -6.6264415 0.70448631 1.6032666e+09 76 5 0
12.570384 -10.445194 3.8259082 1.6032666e+09 22 14 0
12.452926 -10.378086 2.6670668 1.6032666e+09 34 12 0
10.571649 -8.4242954 1.4032091 1.6032666e+09 17 10 0
12.276159 -9.7810154 1.5310441 1.6032666e+09 11 10 0
5.6051464 -6.1568985 0.79245901 1.6032666e+09 78 6 0
12.482624 -9.8429813 3.7443748 1.6032666e+09 31 14 0
12.100801 -9.199707 1.5963264 1.6032666e+09 31 10 0
11.700743 -9.0801277 1.5113941 1.6032666e+09 41 10 0
5.8506083 -6.0966697 -0.056718279 1.6032666e+09 38 5 0
12.973718 -9.7068167 2.633183 1.6032666e+09 64 11 0
12.303885 -8.4084301 2.1023831 1.6032666e+09 15 9 0
12.40181 -8.2755156 1.5668172 1.6032666e+09 39 10 0
12.717495 -8.3745461 1.9906765 1.6032666e+09 6 11 0
12.082023 -10.546006 2.8823054 1.6032666e+09 39 12 0
5.1566424 -6.3860974 -0.10744216 1.6032666e+09 100 4 0
5.9226131 -6.9782596 2.1804135 1.6032666e+09 11 14 0
5.2172961 -5.7213035 -0.44800651 1.6032666e+09 100 5 0
10.38579 -9.1541471 1.080537 1.6032666e+09 28 7 0
5.7261 -6.1636524 -0.32185313 1.6032666e+09 100 5 0
5.4874411 -6.0202494 -0.51258832 1.6032666e+09 70 3 0
5.8600855 -4.951158 2.081306 1.6032666e+09 13 15 0
11.956702 -10.521823 3.703347 1.6032666e+09 16 14 0
12.447924 -10.379242 3.9151385 1.6032666e+09 18 14 0
8.8751316 -7.6259918 1.1510398 1.6032666e+09 15 8 0
12.160404 -10.400593 3.1828475 1.6032666e+09 20 13 0
8.7852612 -7.2105436 1.1159258 1.6032666e+09 46 10 0
11.75917 -9.4578257 1.6119626 1.6032666e+09 37 9 0
12.813175 -10.427767 2.2006919 1.6032666e+09 61 11 0
8.7781754 -7.0023046 1.1035823 1.6032666e+09 52 10 0
10.602263 -8.4209566 1.2995754 1.6032666e+09 18 10 0
12.208133 -9.0655336 1.9537251 1.6032666e+09 28 11 0
5.7852087 -6.6927805 1.9690479 1.6032666e+09 18 12 0
9.5555019 -6.560657 0.67687374 1.6032666e+09 56 6 0
13.590046 -7.9540806 2.0121295 1.6032666e+09 100 11 0
5.1859007 -6.2842722 0.51732051 1.6032666e+09 81 9 0
5.0079288 -6.0230083 2.1220489 1.6032666e+09 6 15 0
5.2452683 -6.2844415 -0.58281922 1.6032666e+09 74 5 0
5.488421 -6.2624021 -0.41729352 1.6032666e+09 97 5 0
4.9823055 -6.0371003 -0.013466609 1.6032666e+09 87 5 0
5.8312998 -6.2664557 1.8067287 1.6032666e+09 11 11 0
5.3287406 -5.7063012 1.5599102 1.6032666e+09 2 13 0
6.0749588 -6.0679011 1.7955587 1.6032666e+09 17 12 0
5.5000448 -6.9110947 0.8537147 1.6032666e+09 87 5 0
6.1775732 -4.9883351 0.77646369 1.6032666e+09 35 9 0
6.3082948 -5.0103731 -0.29328501 1.6032666e+09 73 6 0
5.4276667 -6.7115197 0.17075314 1.6032666e+09 56 4 0
12.265705 -10.321163 3.0893092 1.6032666e+09 15 12 0
12.493755 -10.391321 2.2103775 1.6032666e+09 79 11 0
12.71473 -10.319731 2.2232695 1.6032666e+09 59 11 0
6.5510631 -5.0705895 0.608006 1.6032666e+09 49 7 0
8.8716097 -7.0174212 0.67505652 1.6032666e+09 47 6 0
11.599705 -9.0378923 1.3375068 1.6032666e+09 13 9 0
9.1630669 -7.0434737 0.70268077 1.6032666e+09 30 8 0
11.612328 -8.6231527 1.6606021 1.6032666e+09 30 9 0
9.8130989 -5.9093065 0.27581543 1.6032666e+09 90 2 0
13.26447 -8.0328436 2.1036854 1.6032666e+09 42 11 0
4.9595685 -7.0130253 0.042319026 1.6032666e+09 18 7 0
10.703441 -8.4180422 0.97312379 1.6032666e+09 16 9 0
5.9358244 -5.465745 -0.56649792 1.6032666e+09 70 5 0
5.0390172 -6.6513457 1.4340369 1.6032666e+09 30 12 0
5.2819223 -6.1548429 0.52811378 1.6032666e+09 100 6 0
5.3121829 -6.0209312 0.053009909 1.6032666e+09 55 7 0
5.2829456 -5.7075863 1.341925 1.6032666e+09 31 11 0
10.59374 -8.5566006 1.2892116 1.6032666e+09 2 9 0
5.7562766 -5.7377853 -0.29059222 1.6032666e+09 87 3 0
12.057476 -8.2334766 1.2366552 1.6032666e+09 100 7 0
6.3572006 -6.2142792 1.902881 1.6032666e+09 17 11 0
5.7993031 -4.9637818 1.5316353 1.6032666e+09 88 11 0
6.3339853 -5.8147311 1.0623622 1.6032666e+09 51 11 0
10.420938 -8.4217844 1.6727259 1.6032666e+09 7 10 0
7.1889596 -5.4505453 0.51685351 1.6032666e+09 58 6 0
9.2978725 -6.9960337 0.75029922 1.6032666e+09 22 9 0
7.3352013 -5.0178118 0.46742713 1.6032666e+09 100 8 0
13.454462 -8.4824963 1.852686 1.6032666e+09 10 10 0
13.452983 -7.9522066 2.2879443 1.6032666e+09 100 11 0
12.320098 -10.444892 2.7251127 1.6032666e+09 26 12 0
4.9600954 -6.0103288 0.39171693 1.6032666e+09 76 6 0
10.07857 -8.571806 0.77465582 1.6032666e+09 21 5 0
5.4835563 -5.7121382 -0.49230841 1.6032666e+09 100 2 0
5.8857083 -5.8964086 0.16766578 1.6032666e+09 81 8 0
6.8097377 -6.4737034 1.8398747 1.6032666e+09 11 13 0
6.5339613 -5.8241844 0.78356206 1.6032666e+09 20 10 0
5.9708109 -4.9903316 0.96369261 1.6032666e+09 70 11 0
6.1031885 -5.4685931 0.24411622 1.6032666e+09 66 8 0
5.026866 -6.376874 0.94858164 1.6032666e+09 41 6 0
12.046818 -9.9993401 3.6260478 1.6032666e+09 8 14 0
12.783293 -10.267889 2.5774846 1.6032666e+09 13 12 0
6.4313116 -5.0979991 0.2729508 1.6032666e+09 83 0 0
12.189364 -9.6952257 3.60654 1.6032666e+09 2 14 0
6.9274311 -5.5295157 0.5949595 1.6032666e+09 58 7 0
12.968508 -9.9751863 4.0343757 1.6032666e+09 15 14 0
13.096405 -9.7571449 2.6002126 1.6032666e+09 27 12 0
13.5581 -8.8131275 2.7472899 1.6032666e+09 3 12 0
13.323639 -8.072072 1.691835 1.6032666e+09 100 10 0
6.002851 -5.974123 0.71762079 1.6032666e+09 82 10 0
6.3540177 -5.8592892 1.3493804 1.6032666e+09 6 12 0
6.3225079 -5.7134576 0.7633965 1.6032666e+09 93 10 0
5.8821793 -4.9606204 1.7508209 1.6032666e+09 25 11 0
6.1337743 -5.0059805 0.21570122 1.6032666e+09 70 7 0
12.913428 -10.304276 2.0035288 1.6032666e+09 100 11 0
5.4769993 -5.9354596 0.38326794 1.6032666e+09 91 6 0
12.429136 -9.7402449 3.0818913 1.6032666e+09 26 13 0
11.527869 -8.9675264 1.8830615 1.6032666e+09 60 11 0
12.904343 -9.9811163 3.5731857 1.6032666e+09 22 13 0
6.827096 -5.08845 0.2018062 1.6032666e+09 109 6 0
7.3336492 -5.0234728 0.36386979 1.6032666e+09 100 6 0
7.3986664 -5.0439425 0.085251398 1.6032666e+09 100 4 0
13.625547 -8.8821039 2.6324873 1.6032666e+09 4 12 0
13.334028 -8.7515326 1.6516817 1.6032666e+09 11 10 0
13.1782 -8.0369606 2.4253595 1.6032666e+09 100 12 0
13.435558 -8.1147432 1.3504913 1.6032666e+09 100 10 0
5.1985564 -6.4739671 0.20626979 1.6032666e+09 100 4 0
5.5144067 -5.8322105 -0.41264373 1.6032666e+09 58 4 0
5.1555481 -5.6649384 1.585179 1.6032666e+09 36 11 0
12.566179 -9.8411417 3.168294 1.6032666e+09 36 13 0
5.6764727 -6.0063272 -0.19180606 1.6032666e+09 97 2 0
12.583261 -9.7415218 2.6511405 1.6032666e+09 94 12 0
5.7733078 -5.8766351 -0.130108 1.6032666e+09 171 3 0
6.6357999 -5.9790492 1.5753138 1.6032666e+09 27 10 0
8.2595701 -7.3382349 1.3599557 1.6032666e+09 49 11 0
7.9423628 -11.727564 2.6274846 1.6032666e+09 64 10 0
7.4088159 -10.92571 2.568893 1.6032666e+09 30 13 0
5.1190624 -6.6228948 -0.11990789 1.6032666e+09 82 7 0
4.9631591 -6.0030441 -0.16375357 1.6032666e+09 100 2 0
5.0304079 -6.0056419 -0.68539274 1.6032666e+09 91 5 0
5.0851212 -6.0580277 0.50538105 1.6032666e+09 100 9 0
4.9912519 -5.6605549 0.96797168 1.6032666e+09 46 8 0
12.419689 -9.8569307 3.1247513 1.6032666e+09 31 13 0
5.4437866 -6.2279329 0.29325253 1.6032666e+09 100 5 0
5.4709139 -6.267477 0.1177559 1.6032666e+09 112 3 0
5.0029764 -5.6277285 1.3202211 1.6032666e+09 73 11 0
10.295574 -8.8555851 1.087276 1.6032666e+09 12 7 0
5.2608395 -6.1258764 -0.19755034 1.6032666e+09 68 2 0
4.9758625 -5.8218699 1.7681153 1.6032666e+09 20 14 0
12.310598 -9.5311842 3.4377778 1.6032666e+09 66 13 0
5.5291729 -6.1450806 0.72321832 1.6032666e+09 94 10 0
12.607345 -9.8735285 2.6325173 1.6032666e+09 12 12 0
5.5844483 -6.2436724 0.14621626 1.6032666e+09 100 8 0
5.3140469 -5.7778859 1.8055898 1.6032666e+09 10 14 0
6.0643187 -6.1698341 2.0830235 1.6032666e+09 12 14 0
5.8084707 -6.0316787 1.9332294 1.6032666e+09 12 14 0
10.887502 -8.5630827 1.1870999 1.6032666e+09 10 10 0
5.9882221 -5.6301427 -0.21882942 1.6032666e+09 101 6 0
6.0456567 -5.8234825 1.9214455 1.6032666e+09 12 14 0
6.5807738 -6.3480086 1.9243406 1.6032666e+09 34 11 0
6.3877239 -5.921453 1.6952242 1.6032666e+09 13 13 0
6.482193 -5.969039 1.0819561 1.6032666e+09 76 11 0
6.5543089 -6.0150595 1.6656711 1.6032666e+09 54 10 0
5.7063093 -4.9806147 1.9291179 1.6032666e+09 62 12 0
6.3366795 -5.8218622 1.3636547 1.6032666e+09 45 12 0
6.2660875 -5.5672054 0.7333284 1.6032666e+09 7 10 0
5.5728951 -5.124548 2.2432985 1.6032666e+09 42 14 0
5.9512973 -4.9827299 0.74087882 1.6032666e+09 92 6 0
5.9612403 -4.9746361 1.3946577 1.6032666e+09 56 9 0
5.9069304 -4.964448 1.1038086 1.6032666e+09 81 11 0
12.879661 -10.520924 3.9141092 1.6032666e+09 20 14 0
12.745688 -10.266123 2.5921195 1.6032666e+09 61 12 0
6.2271934 -5.0169072 -0.1241494 1.6032666e+09 78 6 0
6.1522064 -4.9846592 0.66678125 1.6032666e+09 33 8 0
12.113149 -9.6618967 3.5465341 1.6032666e+09 16 14 0
12.632924 -9.9661474 3.1277411 1.6032666e+09 28 13 0
8.8112984 -6.9518986 0.98776835 1.6032666e+09 56 10 0
10.990312 -8.5927525 1.220529 1.6032666e+09 10 10 0
5.7802057 -5.8781886 0.20176783 1.6032666e+09 100 6 0
12.465714 -9.6809731 3.0470655 1.6032666e+09 16 13 0
5.3541594 -6.5804782 1.6935747 1.6032666e+09 31 11 0
11.062657 -8.5255461 1.2219235 1.6032666e+09 10 10 0
12.901735 -9.9646006 3.30493 1.6032666e+09 14 13 0
12.890518 -9.9478054 2.6475873 1.6032666e+09 42 11 0
11.625321 -8.854888 1.8369694 1.6032666e+09 41 11 0
12.421942 -9.3131046 3.0178354 1.6032666e+09 15 13 0
13.059071 -9.7162151 2.5780404 1.6032666e+09 9 12 0
6.9083242 -5.0895352 0.14977656 1.6032666e+09 100 8 0
5.8630438 -6.3211336 1.6810832 1.6032666e+09 34 11 0
6.9743943 -5.083951 -0.15064916 1.6032666e+09 100 7 0
5.8263664 -5.7336473 0.15904492 1.6032666e+09 30 5 0
12.701247 -9.3340979 2.8778465 1.6032666e+09 52 12 0
6.9528584 -5.0515475 0.45040327 1.6032666e+09 63 9 0
12.623277 -9.1282396 3.0376089 1.6032666e+09 20 13 0
12.075246 -8.6545935 1.8241404 1.6032666e+09 29 11 0
13.707392 -9.6441813 2.6338418 1.6032666e+09 6 11 0
13.754731 -9.4357033 2.6418655 1.6032666e+09 2 12 0
12.375831 -8.3370571 1.8102632 1.6032666e+09 51 11 0
7.3566413 -5.0295863 0.48410043 1.6032666e+09 90 9 0
7.4175811 -5.0305624 0.17531984 1.6032666e+09 81 8 0
12.450162 -8.34725 1.840471 1.6032666e+09 14 11 0
9.5514774 -6.3004313 0.5996654 1.6032666e+09 69 9 0
13.69306 -8.9093761 2.5874264 1.6032666e+09 2 12 0
13.597292 -7.9870567 1.9362602 1.6032666e+09 100 11 0
13.731333 -7.9950352 1.3901341 1.6032666e+09 100 10 0
13.012216 -10.053355 3.7962742 1.6032666e+09 23 14 0
6.1797771 -6.4194956 -0.15553585 1.6032666e+09 80 7 0
6.4696646 -5.7521186 1.0629444 1.6032666e+09 27 11 0
81.806747 61.087963 23.571272 1.6032666e+09 45 14 0
21.124699 -16.323961 5.6865487 1.6032666e+09 8 13 0
21.948906 -16.815147 4.965745 1.6032666e+09 49 12 0
22.199093 -16.719679 4.9836049 1.6032666e+09 31 12 0
21.985588 -16.424112 6.6986389 1.6032666e+09 18 14 0
22.067524 -16.257914 5.7593551 1.6032666e+09 24 13 0
23.048761 -17.045012 6.7703948 1.6032666e+09 23 14 0
22.39151 -16.865839 5.7327619 1.6032666e+09 21 13 0
22.570498 -16.772745 5.5055237 1.6032666e+09 25 13 0
22.842487 -16.733683 5.5504184 1.6032666e+09 27 13 0
22.627567 -16.996288 6.6799507 1.6032666e+09 13 14 0
23.05308 -17.19705 5.6135821 1.6032666e+09 29 13 0
23.033514 -16.655834 6.6228614 1.6032666e+09 23 14 0
22.63308 -17.252346 6.5535245 1.6032666e+09 5 14 0
22.848244 -16.804695 5.5363741 1.6032666e+09 14 13 0
23.088943 -16.930466 5.7158275 1.6032666e+09 38 13 0
23.358309 -16.683491 5.7244654 1.6032666e+09 31 13 0
22.720045 -16.328836 5.4613595 1.6032666e+09 13 13 0
