# .PCD v0.7 - Point Cloud Data file format
VERSION 0.7
FIELDS x y z time intensity laser_id label
SIZE 4 4 4 8 4 2 2
TYPE F F F F F U U
COUNT 1 1 1 1 1 1 1
WIDTH 930
HEIGHT 1
VIEWPOINT 0 0 0 1 0 0 0
POINTS 930
DATA ascii
38.419342 34.390976 6.5002165 1.6032666e+09 23 9 0
37.393597 25.589746 11.256414 1.6032666e+09 27 3 0
37.397026 25.650352 11.198435 1.6032666e+09 28 4 0
38.750298 25.645794 10.314359 1.6032666e+09 16 5 0
38.811081 34.155849 7.0050025 1.6032666e+09 53 10 0
36.964306 27.741018 10.025642 1.6032666e+09 43 13 0
37.174454 26.37396 11.070289 1.6032666e+09 31 11 0
38.557846 26.932442 9.0645943 1.6032666e+09 64 12 0
38.10041 26.689404 11.620007 1.6032666e+09 30 3 0
39.59375 27.205133 9.5108681 1.6032666e+09 19 13 0
36.072109 30.494696 5.320857 1.6032666e+09 51 3 0
37.257706 28.692947 7.8656678 1.6032666e+09 54 11 0
34.74012 26.26421 5.3473835 1.6032666e+09 38 11 0
37.276367 27.035723 11.616997 1.6032666e+09 7 14 0
43.94236 27.335365 9.2612371 1.6032666e+09 24 6 0
37.202496 28.308434 7.5001144 1.6032666e+09 58 11 0
37.33844 28.532114 8.2576933 1.6032666e+09 100 11 0
36.279701 27.15069 8.3911457 1.6032666e+09 43 11 0
38.310211 27.506601 8.873704 1.6032666e+09 44 10 0
36.725689 28.05378 9.8901062 1.6032666e+09 40 10 0
38.196434 26.913174 7.7758002 1.6032666e+09 26 11 0
37.14193 28.822105 7.9685497 1.6032666e+09 55 6 0
37.372299 25.823244 10.321228 1.6032666e+09 36 13 0
37.534763 27.991392 9.3218126 1.6032666e+09 43 10 0
39.467216 27.476572 11.125264 1.6032666e+09 14 6 0
38.640812 26.960514 6.8530884 1.6032666e+09 36 11 0
37.417755 27.297157 10.636567 1.6032666e+09 28 13 0
38.310997 27.621334 8.1162987 1.6032666e+09 51 11 0
38.24749 26.90667 8.9743109 1.6032666e+09 100 11 0
38.272179 25.753796 10.339502 1.6032666e+09 41 12 0
38.590534 26.81435 11.802025 1.6032666e+09 15 11 0
37.895199 25.350607 9.8159924 1.6032666e+09 67 11 0
39.201889 33.974731 7.3493023 1.6032666e+09 60 10 0
37.896774 25.314167 9.853178 1.6032666e+09 42 12 0
38.422455 26.958197 9.2588043 1.6032666e+09 63 12 0
38.719795 25.665766 10.457588 1.6032666e+09 18 13 0
38.061768 27.677586 9.3093643 1.6032666e+09 25 12 0
38.338528 26.265244 10.464897 1.6032666e+09 42 12 0
37.359932 27.829763 9.6463442 1.6032666e+09 36 12 0
38.015877 28.267168 8.0506468 1.6032666e+09 14 9 0
37.427551 26.185631 9.5551157 1.6032666e+09 28 13 0
38.580418 26.821882 6.990448 1.6032666e+09 52 10 0
38.252762 34.387554 6.2267485 1.6032666e+09 24 9 0
37.475983 25.840023 11.576146 1.6032666e+09 56 14 0
37.217628 26.168142 8.6458302 1.6032666e+09 81 11 0
37.735626 25.78126 11.335984 1.6032666e+09 32 14 0
39.707943 25.1945 10.411929 1.6032666e+09 10 12 0
37.81633 28.33046 7.2105422 1.6032666e+09 52 10 0
40.049751 27.654903 11.221868 1.6032666e+09 59 6 0
39.276569 26.476757 10.961437 1.6032666e+09 14 14 0
38.780235 26.830994 8.5025873 1.6032666e+09 70 12 0
38.134373 26.315678 10.458903 1.6032666e+09 42 12 0
36.898487 27.156765 10.837932 1.6032666e+09 44 13 0
37.421516 26.29295 9.6429615 1.6032666e+09 36 10 0
38.361481 25.548269 9.746706 1.6032666e+09 56 12 0
38.624882 25.704552 9.8982639 1.6032666e+09 21 13 0
38.306511 24.979237 8.2676859 1.6032666e+09 84 11 0
37.80603 26.072683 9.9262247 1.6032666e+09 20 13 0
37.646759 25.274759 8.5380726 1.6032666e+09 31 8 0
43.750122 26.292469 9.3926096 1.6032666e+09 18 4 0
37.83646 25.031199 8.2883596 1.6032666e+09 81 11 0
38.785789 26.131346 9.2464237 1.6032666e+09 17 13 0
39.042435 24.84416 10.630838 1.6032666e+09 18 12 0
36.637756 27.194447 8.572216 1.6032666e+09 21 11 0
38.926529 27.067291 7.7568173 1.6032666e+09 55 9 0
36.428276 26.223331 8.4859476 1.6032666e+09 46 6 0
38.091068 26.376352 10.664898 1.6032666e+09 18 5 0
36.697594 26.254869 10.021935 1.6032666e+09 38 13 0
37.341846 28.485317 7.7386522 1.6032666e+09 50 10 0
36.964272 26.502037 11.911648 1.6032666e+09 29 13 0
38.220589 25.377052 8.6291742 1.6032666e+09 81 11 0
36.652931 26.868042 8.5425472 1.6032666e+09 53 12 0
37.370274 26.920292 11.330361 1.6032666e+09 16 13 0
38.110817 27.658249 5.4909549 1.6032666e+09 11 7 0
38.496109 28.632988 6.8622646 1.6032666e+09 34 9 0
36.547623 25.987186 8.4743805 1.6032666e+09 79 10 0
38.549011 26.85907 8.9961805 1.6032666e+09 84 10 0
38.727287 25.661642 10.063178 1.6032666e+09 10 13 0
37.019058 26.261475 11.15256 1.6032666e+09 33 10 0
36.168205 27.320316 8.2074852 1.6032666e+09 44 11 0
37.029079 26.988338 10.69875 1.6032666e+09 35 10 0
38.415909 27.515612 8.5574121 1.6032666e+09 23 11 0
39.109745 27.280907 11.468699 1.6032666e+09 17 8 0
37.483555 27.424856 8.3917999 1.6032666e+09 91 10 0
37.83374 26.419434 10.614287 1.6032666e+09 22 3 0
35.09597 28.529852 5.4053078 1.6032666e+09 46 3 0
37.47789 25.686573 11.444812 1.6032666e+09 32 12 0
38.489799 34.530556 6.026144 1.6032666e+09 26 8 0
37.421867 28.472464 8.1520557 1.6032666e+09 48 10 0
37.19976 26.914028 10.892559 1.6032666e+09 35 10 0
37.027374 28.306665 9.7052956 1.6032666e+09 42 10 0
38.378517 27.280991 8.7599554 1.6032666e+09 50 9 0
37.67128 25.158712 8.2890959 1.6032666e+09 81 11 0
37.076225 27.033602 9.6157417 1.6032666e+09 14 13 0
37.173653 26.082272 8.5186958 1.6032666e+09 26 12 0
37.737999 25.718294 11.155303 1.6032666e+09 43 14 0
39.654793 25.114201 10.348529 1.6032666e+09 21 12 0
37.972214 27.655909 10.751816 1.6032666e+09 9 13 0
37.517681 27.993921 8.2277308 1.6032666e+09 47 10 0
35.215141 25.044411 5.4778061 1.6032666e+09 56 2 0
37.872787 26.933334 9.1458759 1.6032666e+09 50 12 0
37.527012 26.604586 11.844672 1.6032666e+09 46 5 0
37.284531 25.837212 10.270521 1.6032666e+09 64 11 0
37.829422 26.466356 9.3730917 1.6032666e+09 77 10 0
36.701305 26.289139 5.0514793 1.6032666e+09 37 3 0
37.746231 27.932611 10.849916 1.6032666e+09 41 14 0
37.023804 27.130634 9.6230621 1.6032666e+09 14 13 0
38.831295 30.082333 6.6390038 1.6032666e+09 25 7 0
38.122456 27.349211 8.2618876 1.6032666e+09 36 12 0
37.814644 27.852409 9.3171453 1.6032666e+09 18 13 0
37.545349 27.072113 7.8080769 1.6032666e+09 13 9 0
39.498032 27.103865 9.3115435 1.6032666e+09 21 13 0
37.550343 26.663895 8.615015 1.6032666e+09 48 9 0
40.263863 27.108433 8.5159283 1.6032666e+09 38 12 0
38.214161 26.837585 7.804069 1.6032666e+09 26 9 0
36.84404 27.893673 10.241799 1.6032666e+09 30 13 0
37.865822 27.355637 8.2963047 1.6032666e+09 48 11 0
37.257462 28.460024 8.1329451 1.6032666e+09 38 8 0
38.97813 27.588612 8.6228075 1.6032666e+09 29 12 0
36.95475 27.28874 8.2295322 1.6032666e+09 46 11 0
37.597855 26.95327 10.720039 1.6032666e+09 27 13 0
37.334015 28.050745 9.5018368 1.6032666e+09 42 10 0
35.785065 26.010473 5.4341822 1.6032666e+09 59 2 0
37.978088 27.411163 7.477778 1.6032666e+09 28 11 0
37.333797 25.863426 10.409501 1.6032666e+09 27 13 0
37.586357 26.703329 11.888405 1.6032666e+09 32 6 0
39.426907 26.220652 11.110998 1.6032666e+09 9 12 0
38.033443 28.3139 7.2877879 1.6032666e+09 20 8 0
38.48616 28.306767 7.1262665 1.6032666e+09 33 7 0
29.054699 22.632467 4.3031745 1.6032666e+09 51 10 0
30.62117 20.973225 4.542377 1.6032666e+09 49 10 0
29.095638 22.762255 4.3228378 1.6032666e+09 67 2 0
31.268658 15.786717 4.6495242 1.6032666e+09 44 11 0
28.196791 20.794731 4.1389441 1.6032666e+09 42 2 0
30.554298 16.45277 4.5247655 1.6032666e+09 23 11 0
26.341242 21.009848 3.7166083 1.6032666e+09 47 10 0
29.969002 20.751522 4.4757738 1.6032666e+09 55 11 0
28.173355 20.855022 4.1461263 1.6032666e+09 29 8 0
31.40682 20.627172 4.6913276 1.6032666e+09 57 11 0
26.720367 16.761496 3.8322523 1.6032666e+09 46 1 0
26.404663 21.051382 3.7575338 1.6032666e+09 46 9 0
31.718863 20.68762 4.7665124 1.6032666e+09 56 11 0
29.64665 16.51882 4.3923907 1.6032666e+09 91 11 0
29.320805 18.896593 4.3253193 1.6032666e+09 44 10 0
28.615757 19.270187 4.1993432 1.6032666e+09 44 10 0
32.068283 20.59938 4.8291655 1.6032666e+09 93 10 0
28.985672 23.230709 4.2594628 1.6032666e+09 39 6 0
29.329508 18.798542 4.3547096 1.6032666e+09 50 11 0
-7.1851668 -19.507696 -3.2926328 1.6032666e+09 5 3 0
38.293015 24.001694 9.9776945 1.6032666e+09 20 2 0
38.625179 18.33259 11.488563 1.6032666e+09 69 3 0
39.606331 18.23209 11.164807 1.6032666e+09 14 3 0
38.495853 18.150925 11.701777 1.6032666e+09 18 3 0
42.45763 18.953667 10.802477 1.6032666e+09 28 3 0
40.987888 19.726942 10.891315 1.6032666e+09 41 5 0
40.118408 19.390102 11.428294 1.6032666e+09 65 6 0
39.259514 19.199099 10.540042 1.6032666e+09 39 5 0
39.467613 18.507341 9.8601427 1.6032666e+09 10 4 0
39.088219 18.608564 9.9402533 1.6032666e+09 9 3 0
39.31649 18.528206 9.8820906 1.6032666e+09 17 3 0
43.266983 23.019068 10.037569 1.6032666e+09 44 5 0
40.243084 19.078064 10.967119 1.6032666e+09 55 6 0
41.079948 19.384315 10.521931 1.6032666e+09 51 6 0
38.789177 18.846348 11.185447 1.6032666e+09 47 6 0
43.97855 21.021023 9.6799316 1.6032666e+09 9 4 0
38.858727 18.76454 11.011657 1.6032666e+09 45 6 0
44.213589 23.3255 9.2724924 1.6032666e+09 42 5 0
41.368225 19.554729 10.721668 1.6032666e+09 30 7 0
43.996418 20.191288 9.2162275 1.6032666e+09 7 5 0
41.788597 19.981371 9.217021 1.6032666e+09 68 4 0
40.515202 18.392048 8.7222157 1.6032666e+09 39 4 0
43.952148 23.808416 9.4829588 1.6032666e+09 45 6 0
41.915741 19.456503 9.9371567 1.6032666e+09 67 6 0
41.262566 19.465002 10.416473 1.6032666e+09 71 7 0
42.894463 18.983505 9.0547209 1.6032666e+09 18 4 0
41.078773 19.58659 10.940799 1.6032666e+09 68 7 0
39.874809 19.473316 11.602453 1.6032666e+09 67 9 0
39.680756 19.222075 10.310377 1.6032666e+09 65 6 0
41.669674 24.656073 9.4375401 1.6032666e+09 20 6 0
41.714825 19.519657 10.27194 1.6032666e+09 37 6 0
40.892059 18.423796 11.019052 1.6032666e+09 28 7 0
40.162422 18.656902 11.102685 1.6032666e+09 22 9 0
40.210663 19.199099 10.589835 1.6032666e+09 44 8 0
39.849571 19.042013 11.585555 1.6032666e+09 58 9 0
38.006512 18.376869 9.345788 1.6032666e+09 47 6 0
40.546761 17.548693 10.295747 1.6032666e+09 16 3 0
41.547066 17.783497 9.5584164 1.6032666e+09 5 7 0
40.636269 19.124243 10.908399 1.6032666e+09 63 9 0
40.30619 18.570429 10.889885 1.6032666e+09 27 9 0
39.994019 14.946947 6.7354598 1.6032666e+09 17 1 0
44.487549 20.260548 9.25879 1.6032666e+09 48 4 0
40.332481 20.309584 10.693412 1.6032666e+09 57 9 0
39.560459 19.321692 12.049215 1.6032666e+09 53 8 0
38.212391 18.080263 9.9925623 1.6032666e+09 48 6 0
39.558598 19.258381 11.249002 1.6032666e+09 64 9 0
38.591988 18.420458 11.688853 1.6032666e+09 41 7 0
38.128132 18.966867 11.715441 1.6032666e+09 20 3 0
44.35791 18.46608 9.0648499 1.6032666e+09 27 7 0
42.309761 19.290716 9.6305504 1.6032666e+09 44 5 0
41.854588 19.542377 10.4762 1.6032666e+09 48 9 0
39.618294 17.135756 6.846087 1.6032666e+09 43 3 0
39.548092 18.569521 8.4138508 1.6032666e+09 33 5 0
42.518276 22.451643 8.6769466 1.6032666e+09 24 6 0
38.423439 18.91909 11.466344 1.6032666e+09 44 11 0
43.856258 19.592876 10.08872 1.6032666e+09 26 9 0
43.228302 19.039249 9.3421488 1.6032666e+09 40 7 0
42.021885 19.542957 10.116061 1.6032666e+09 49 7 0
39.905357 18.95327 10.144535 1.6032666e+09 55 7 0
36.544262 19.149075 5.5496345 1.6032666e+09 64 2 0
42.996708 19.096523 9.1647978 1.6032666e+09 41 7 0
42.424728 19.572641 9.9305477 1.6032666e+09 24 6 0
39.015514 19.037481 10.540175 1.6032666e+09 48 10 0
38.537189 19.281412 11.217361 1.6032666e+09 9 11 0
37.869583 16.747501 4.9744534 1.6032666e+09 20 0 0
42.913025 19.053013 9.069519 1.6032666e+09 35 7 0
41.434681 19.624844 10.983767 1.6032666e+09 38 7 0
38.478226 19.284691 8.8958969 1.6032666e+09 12 6 0
38.250946 21.811514 6.901248 1.6032666e+09 9 5 0
38.00959 22.457125 7.6102338 1.6032666e+09 56 6 0
37.983749 24.493137 8.3244505 1.6032666e+09 38 7 0
42.584743 19.422316 9.5292425 1.6032666e+09 38 8 0
44.050968 19.462452 9.4893703 1.6032666e+09 28 7 0
39.796276 18.760338 10.876224 1.6032666e+09 99 11 0
39.478054 19.16445 10.91877 1.6032666e+09 91 11 0
38.970303 18.431171 5.8052592 1.6032666e+09 5 2 0
41.57798 19.565418 9.7314196 1.6032666e+09 37 8 0
42.745537 17.410034 7.4502273 1.6032666e+09 70 6 0
42.394726 20.252876 8.7420778 1.6032666e+09 30 5 0
39.089603 20.498528 7.369483 1.6032666e+09 27 6 0
42.604813 18.060503 8.6957083 1.6032666e+09 46 8 0
42.275562 19.105677 10.796993 1.6032666e+09 19 11 0
41.507427 19.277477 9.4043484 1.6032666e+09 58 9 0
39.270432 19.768475 7.3609495 1.6032666e+09 62 4 0
38.63731 18.109922 5.5792289 1.6032666e+09 8 3 0
38.657509 19.100971 5.4742575 1.6032666e+09 9 3 0
38.556606 19.754572 8.6030855 1.6032666e+09 51 7 0
40.001122 15.901179 6.7868652 1.6032666e+09 44 2 0
41.6581 19.472633 10.915448 1.6032666e+09 18 8 0
40.038979 19.141485 10.621446 1.6032666e+09 75 11 0
38.485378 20.675814 7.1823802 1.6032666e+09 7 6 0
41.856529 17.372492 8.4319124 1.6032666e+09 8 8 0
41.620861 19.524673 9.1674042 1.6032666e+09 61 9 0
41.062988 18.30785 9.1107111 1.6032666e+09 30 9 0
42.486717 18.529366 11.056595 1.6032666e+09 20 3 0
40.244343 18.60784 10.355638 1.6032666e+09 18 11 0
39.522614 17.439508 7.2799401 1.6032666e+09 37 5 0
38.058037 17.940235 5.1867919 1.6032666e+09 4 3 0
43.222233 18.220577 8.1730509 1.6032666e+09 21 8 0
42.719406 18.565487 10.335052 1.6032666e+09 81 11 0
41.258797 18.630484 11.004785 1.6032666e+09 63 11 0
39.958008 18.617798 9.6639614 1.6032666e+09 35 6 0
39.286602 19.304619 7.5126548 1.6032666e+09 40 7 0
39.409027 19.263121 12.124658 1.6032666e+09 36 11 0
38.933952 22.146179 6.6822891 1.6032666e+09 34 6 0
37.783688 24.213045 9.1264887 1.6032666e+09 38 9 0
40.91172 19.203917 10.945207 1.6032666e+09 74 11 0
40.037518 19.246643 11.555124 1.6032666e+09 31 13 0
39.93922 19.259291 10.108583 1.6032666e+09 59 11 0
39.378586 21.341568 6.4725475 1.6032666e+09 33 6 0
38.203018 18.653452 5.3142786 1.6032666e+09 15 4 0
41.907593 17.079378 7.1807966 1.6032666e+09 32 4 0
42.422848 17.9046 8.659317 1.6032666e+09 27 9 0
42.770203 19.431477 9.5036774 1.6032666e+09 47 10 0
40.273224 19.212385 11.583072 1.6032666e+09 72 9 0
39.578453 18.618507 7.2684307 1.6032666e+09 24 7 0
38.961075 18.542587 10.159704 1.6032666e+09 53 7 0
38.164528 17.499889 9.8303843 1.6032666e+09 40 9 0
37.583054 17.072968 5.4730792 1.6032666e+09 38 4 0
37.769493 24.380434 10.65072 1.6032666e+09 56 11 0
43.91824 21.020479 9.4999781 1.6032666e+09 52 4 0
42.000599 18.901623 10.786335 1.6032666e+09 30 12 0
41.753647 19.67967 10.874379 1.6032666e+09 57 12 0
39.660858 17.243099 9.0667381 1.6032666e+09 66 10 0
40.061871 19.305206 11.467237 1.6032666e+09 74 7 0
38.675774 18.286137 5.6547036 1.6032666e+09 17 1 0
38.460415 21.577473 7.8797092 1.6032666e+09 43 7 0
37.558445 22.538736 7.7649198 1.6032666e+09 40 5 0
42.42733 19.62294 10.831154 1.6032666e+09 21 12 0
38.174507 19.922987 9.623064 1.6032666e+09 44 11 0
39.337021 22.03503 11.100595 1.6032666e+09 6 14 0
38.57785 22.060373 8.5161963 1.6032666e+09 16 11 0
37.524937 24.128094 10.001279 1.6032666e+09 35 13 0
41.874977 17.891968 9.7912636 1.6032666e+09 26 12 0
41.695042 17.19779 8.4609566 1.6032666e+09 73 11 0
40.166756 17.256313 9.5019817 1.6032666e+09 40 13 0
40.187126 20.901674 8.7379236 1.6032666e+09 23 12 0
42.530876 19.057076 10.347105 1.6032666e+09 57 12 0
38.374023 19.923683 9.6016769 1.6032666e+09 68 11 0
38.969006 21.780693 9.9034338 1.6032666e+09 23 12 0
38.716576 22.963514 8.7447767 1.6032666e+09 71 13 0
38.272469 21.408733 8.5709867 1.6032666e+09 11 12 0
40.370537 20.666246 10.640717 1.6032666e+09 16 2 0
38.483841 22.513525 9.9630833 1.6032666e+09 24 12 0
43.127312 18.669285 10.005068 1.6032666e+09 83 12 0
39.379639 21.913101 9.7836256 1.6032666e+09 9 13 0
38.194016 24.268288 7.5514078 1.6032666e+09 47 11 0
42.866512 19.700394 10.098092 1.6032666e+09 65 12 0
43.056438 18.824776 10.795392 1.6032666e+09 38 11 0
39.017788 20.809883 9.4992332 1.6032666e+09 32 12 0
41.338337 19.889072 11.290619 1.6032666e+09 53 13 0
39.454277 21.924377 9.7990255 1.6032666e+09 18 13 0
38.78915 18.861284 9.3571529 1.6032666e+09 88 11 0
37.694511 18.406998 10.178091 1.6032666e+09 12 14 0
39.795891 21.277935 11.041547 1.6032666e+09 70 14 0
38.554623 21.721611 7.1237974 1.6032666e+09 31 6 0
38.923866 22.103758 9.8744583 1.6032666e+09 27 11 0
38.961311 17.919481 9.2277145 1.6032666e+09 42 13 0
41.056076 18.436707 9.9819641 1.6032666e+09 38 13 0
39.33218 18.357376 8.1737471 1.6032666e+09 57 12 0
43.326572 18.555185 8.9256525 1.6032666e+09 64 11 0
36.689545 16.929258 5.6137667 1.6032666e+09 30 9 0
38.969337 18.081585 7.7363052 1.6032666e+09 16 11 0
39.433243 18.846098 9.380105 1.6032666e+09 71 7 0
39.848255 16.998489 7.9155879 1.6032666e+09 92 11 0
36.549095 15.673944 5.5328379 1.6032666e+09 80 10 0
39.41164 17.738792 8.9366341 1.6032666e+09 61 12 0
39.789368 18.100901 9.2546148 1.6032666e+09 54 12 0
39.744026 17.039259 7.7769446 1.6032666e+09 93 11 0
40.948467 19.903378 11.127478 1.6032666e+09 44 5 0
42.15871 18.741009 10.530502 1.6032666e+09 57 11 0
38.958015 18.166704 7.6803193 1.6032666e+09 12 12 0
38.419529 19.651917 9.2421331 1.6032666e+09 44 13 0
38.84642 21.146225 9.4813871 1.6032666e+09 9 13 0
39.663177 19.229855 9.6255674 1.6032666e+09 49 6 0
40.257874 24.569313 10.321028 1.6032666e+09 20 12 0
40.3606 18.853445 10.866077 1.6032666e+09 40 13 0
36.682625 17.310131 5.4979177 1.6032666e+09 68 7 0
39.224815 19.385773 9.0030651 1.6032666e+09 35 12 0
39.509212 18.353737 10.24774 1.6032666e+09 26 12 0
38.668495 19.277184 10.540836 1.6032666e+09 39 12 0
42.739304 18.777832 10.207041 1.6032666e+09 66 11 0
38.753532 22.769125 8.3768425 1.6032666e+09 25 12 0
38.576145 23.285324 8.4832554 1.6032666e+09 70 10 0
40.815186 18.759592 10.685385 1.6032666e+09 46 12 0
41.714714 17.766588 9.6681499 1.6032666e+09 27 9 0
38.497589 19.57781 9.3471489 1.6032666e+09 43 13 0
40.515259 18.252281 9.3344831 1.6032666e+09 19 13 0
39.186783 18.398623 10.341407 1.6032666e+09 72 14 0
41.343788 18.594208 10.765967 1.6032666e+09 40 8 0
36.259109 17.309685 5.3898492 1.6032666e+09 59 7 0
39.148876 19.594391 8.906352 1.6032666e+09 33 9 0
39.067345 18.784983 9.2595921 1.6032666e+09 91 11 0
37.516624 23.893648 7.4662991 1.6032666e+09 45 11 0
38.173332 21.627756 7.8020759 1.6032666e+09 37 11 0
38.971085 17.914886 10.242891 1.6032666e+09 35 11 0
38.667782 22.321346 9.6568241 1.6032666e+09 43 12 0
39.000027 22.356096 9.9479733 1.6032666e+09 35 13 0
42.753738 17.745354 8.4854774 1.6032666e+09 48 11 0
38.930634 22.179804 10.589434 1.6032666e+09 11 14 0
41.246128 18.402292 9.2055645 1.6032666e+09 40 10 0
39.183048 18.460936 9.3216105 1.6032666e+09 43 13 0
43.27359 18.420719 8.8965797 1.6032666e+09 35 9 0
37.982086 23.920732 7.259181 1.6032666e+09 47 9 0
38.895966 17.764908 10.212066 1.6032666e+09 50 14 0
38.856758 19.275597 10.426134 1.6032666e+09 63 14 0
42.78532 18.814037 10.073645 1.6032666e+09 36 13 0
41.526852 17.916269 9.4779291 1.6032666e+09 36 12 0
37.760719 18.720034 10.098884 1.6032666e+09 65 14 0
39.970207 20.640076 9.5131359 1.6032666e+09 50 13 0
38.564919 21.607782 8.4811497 1.6032666e+09 23 12 0
38.725311 22.208401 7.3472357 1.6032666e+09 54 9 0
36.120705 17.516031 5.5064549 1.6032666e+09 92 7 0
38.717613 19.377407 8.8939657 1.6032666e+09 70 9 0
41.010174 18.589569 10.816328 1.6032666e+09 40 14 0
38.822639 22.477325 9.9130392 1.6032666e+09 13 11 0
38.354988 23.609411 8.6792402 1.6032666e+09 72 12 0
38.947163 15.093195 5.8119569 1.6032666e+09 14 1 0
39.215981 21.841299 10.79153 1.6032666e+09 8 14 0
39.440434 21.952009 9.5942545 1.6032666e+09 19 13 0
39.620396 19.884418 7.1655993 1.6032666e+09 15 4 0
38.192902 23.216366 8.3038874 1.6032666e+09 35 10 0
38.246494 23.944386 7.9509501 1.6032666e+09 100 10 0
38.18116 23.586273 7.0286322 1.6032666e+09 28 6 0
38.452667 24.62249 8.4207458 1.6032666e+09 38 10 0
38.737446 23.01767 8.4674587 1.6032666e+09 69 10 0
39.21682 22.660973 10.970583 1.6032666e+09 10 14 0
38.828335 21.533855 10.540409 1.6032666e+09 9 14 0
43.210449 19.777411 10.784843 1.6032666e+09 35 10 0
38.957264 18.284695 10.285379 1.6032666e+09 48 14 0
38.525932 22.912916 9.2720051 1.6032666e+09 58 10 0
39.627579 18.996416 11.776329 1.6032666e+09 37 14 0
38.497791 21.754761 10.46688 1.6032666e+09 9 14 0
42.867443 19.951637 10.759941 1.6032666e+09 6 6 0
37.716049 22.344656 7.8282466 1.6032666e+09 95 11 0
43.285431 21.304749 10.304032 1.6032666e+09 23 10 0
38.904663 15.669125 5.7272115 1.6032666e+09 11 0 0
38.490047 15.727768 5.2548504 1.6032666e+09 5 0 0
38.685715 22.471859 10.522959 1.6032666e+09 23 10 0
42.666771 17.99646 8.3394489 1.6032666e+09 29 10 0
38.462273 23.758907 6.840097 1.6032666e+09 28 11 0
40.843224 18.728529 10.793756 1.6032666e+09 43 13 0
38.389652 19.41217 8.9803581 1.6032666e+09 49 11 0
35.782768 17.517824 5.3974552 1.6032666e+09 93 7 0
40.629494 21.619806 9.5461235 1.6032666e+09 10 13 0
39.263908 22.675892 10.819285 1.6032666e+09 9 14 0
38.933899 23.661213 6.8633723 1.6032666e+09 58 11 0
37.987854 23.411634 8.3122025 1.6032666e+09 35 10 0
38.315205 22.36437 7.5597539 1.6032666e+09 38 10 0
38.862785 22.316763 10.083668 1.6032666e+09 17 13 0
37.933914 24.113905 10.720673 1.6032666e+09 31 12 0
40.319965 17.084042 7.6775484 1.6032666e+09 34 11 0
40.356064 17.947506 9.2994318 1.6032666e+09 37 13 0
43.458382 18.727583 9.9062309 1.6032666e+09 100 11 0
41.486282 18.250196 9.3890495 1.6032666e+09 58 9 0
37.573498 24.464388 10.442351 1.6032666e+09 69 12 0
40.612988 17.666939 10.350146 1.6032666e+09 44 14 0
38.964447 21.20303 8.1765184 1.6032666e+09 17 11 0
39.673161 21.146605 10.85843 1.6032666e+09 50 14 0
39.319496 22.090734 9.4667158 1.6032666e+09 23 13 0
39.304001 21.237408 11.634298 1.6032666e+09 24 4 0
40.70211 18.040758 10.407908 1.6032666e+09 45 12 0
38.804306 20.82431 9.7190123 1.6032666e+09 8 13 0
42.557014 19.579773 9.8112555 1.6032666e+09 64 11 0
43.49556 19.521282 9.6724014 1.6032666e+09 72 4 0
39.288509 18.02302 8.9033203 1.6032666e+09 44 13 0
41.463284 18.339418 9.4563704 1.6032666e+09 72 11 0
39.452919 21.709909 10.51967 1.6032666e+09 28 13 0
39.897896 17.303596 9.5127783 1.6032666e+09 52 9 0
38.132156 24.209335 10.757174 1.6032666e+09 15 13 0
38.579338 23.623171 6.2102227 1.6032666e+09 29 3 0
36.899826 17.007736 5.5807762 1.6032666e+09 84 4 0
41.722431 19.358084 9.8693409 1.6032666e+09 75 10 0
42.886974 18.152996 9.4725723 1.6032666e+09 11 13 0
43.143188 21.789787 9.3327589 1.6032666e+09 48 4 0
37.766289 22.148876 5.2602305 1.6032666e+09 7 2 0
40.351822 17.022766 7.5535431 1.6032666e+09 89 11 0
38.067993 23.574373 9.279439 1.6032666e+09 21 13 0
38.434017 22.36006 10.358287 1.6032666e+09 14 13 0
38.092884 24.562082 9.2151575 1.6032666e+09 34 10 0
42.871853 21.930262 10.078029 1.6032666e+09 59 5 0
42.948982 18.050882 9.4872608 1.6032666e+09 46 12 0
38.947037 18.180178 9.8758526 1.6032666e+09 67 7 0
37.985065 19.036755 9.629797 1.6032666e+09 66 13 0
38.183899 23.365356 7.3858294 1.6032666e+09 24 11 0
43.591717 19.060446 9.3247728 1.6032666e+09 41 5 0
39.240669 17.687954 8.6763897 1.6032666e+09 76 12 0
40.424812 18.297478 9.4608116 1.6032666e+09 45 13 0
38.398254 18.248554 9.9090319 1.6032666e+09 52 12 0
40.221115 17.609148 8.9542942 1.6032666e+09 51 13 0
38.788658 19.290115 8.9125433 1.6032666e+09 77 7 0
37.898441 22.207483 7.9896784 1.6032666e+09 91 11 0
37.595181 19.149433 10.025335 1.6032666e+09 20 13 0
40.927753 21.981228 9.5379715 1.6032666e+09 12 13 0
39.335686 22.413521 9.3516979 1.6032666e+09 15 11 0
39.610115 21.234068 10.625305 1.6032666e+09 45 14 0
39.58926 19.141457 6.5660548 1.6032666e+09 45 5 0
37.95612 22.591333 7.7825861 1.6032666e+09 33 6 0
38.635838 22.218691 10.395023 1.6032666e+09 24 11 0
38.99229 23.699322 6.6171694 1.6032666e+09 31 11 0
41.559677 18.157602 9.5836086 1.6032666e+09 69 11 0
39.706188 18.147976 9.1235628 1.6032666e+09 92 11 0
40.293121 24.74802 10.392879 1.6032666e+09 9 13 0
38.015488 24.661514 10.689421 1.6032666e+09 42 12 0
38.853035 20.584776 8.1128674 1.6032666e+09 49 12 0
37.40028 23.985559 9.2474689 1.6032666e+09 43 13 0
39.133095 22.645348 6.8794127 1.6032666e+09 47 10 0
38.176277 24.160147 7.7092218 1.6032666e+09 82 10 0
35.673225 16.299688 5.4295173 1.6032666e+09 51 5 0
38.419571 22.332197 10.310091 1.6032666e+09 23 10 0
38.361752 24.654097 10.701372 1.6032666e+09 58 10 0
40.481567 17.135258 7.6528687 1.6032666e+09 35 11 0
38.148422 23.828535 10.594082 1.6032666e+09 41 11 0
37.613956 18.531467 10.069402 1.6032666e+09 34 14 0
43.46265 18.481588 10.446707 1.6032666e+09 25 12 0
38.470001 21.347744 9.1870737 1.6032666e+09 11 13 0
43.062927 18.26198 10.662501 1.6032666e+09 31 10 0
41.030815 18.143744 10.213596 1.6032666e+09 30 13 0
38.195152 24.05418 7.9119921 1.6032666e+09 43 11 0
42.084503 19.608202 9.160202 1.6032666e+09 50 7 0
43.496552 16.259123 8.026659 1.6032666e+09 74 11 0
39.313599 22.186771 8.6433344 1.6032666e+09 96 10 0
41.411812 22.391687 9.273798 1.6032666e+09 23 12 0
40.006134 17.984503 8.6065168 1.6032666e+09 50 12 0
38.723011 24.091726 10.313676 1.6032666e+09 43 13 0
37.964348 18.573631 9.7149458 1.6032666e+09 67 9 0
40.966274 16.436155 7.1230564 1.6032666e+09 52 12 0
37.729679 22.534771 7.7887449 1.6032666e+09 65 6 0
37.965988 23.429646 9.4471951 1.6032666e+09 40 12 0
38.928135 19.689121 9.0687857 1.6032666e+09 40 13 0
41.254021 18.768476 10.948336 1.6032666e+09 34 14 0
38.866386 21.582169 10.717169 1.6032666e+09 15 14 0
39.17017 20.9727 9.4121475 1.6032666e+09 17 12 0
39.519547 22.122097 10.580679 1.6032666e+09 14 13 0
37.909756 24.222767 7.385551 1.6032666e+09 34 12 0
37.757805 18.658743 9.5657949 1.6032666e+09 19 7 0
39.040047 21.912188 9.736105 1.6032666e+09 18 13 0
37.48671 24.082077 10.106456 1.6032666e+09 43 12 0
38.835159 23.626148 6.7408504 1.6032666e+09 59 11 0
42.43985 19.793636 10.344011 1.6032666e+09 57 12 0
38.803856 21.577564 7.8794093 1.6032666e+09 41 12 0
38.886631 22.361309 9.3219662 1.6032666e+09 60 11 0
39.701679 21.279922 10.799801 1.6032666e+09 68 14 0
39.336517 22.550228 9.5667391 1.6032666e+09 29 11 0
39.345535 19.454477 7.2812881 1.6032666e+09 82 11 0
39.326691 21.656046 10.816618 1.6032666e+09 67 14 0
39.731663 20.839893 10.347718 1.6032666e+09 13 14 0
43.396877 23.271307 9.5182161 1.6032666e+09 21 5 0
38.773205 20.223589 11.81741 1.6032666e+09 42 15 0
42.980728 18.171459 9.3668604 1.6032666e+09 60 7 0
38.786015 17.740086 10.022657 1.6032666e+09 50 14 0
39.138885 19.228134 8.6828976 1.6032666e+09 55 11 0
38.514961 22.312107 9.9669409 1.6032666e+09 17 13 0
42.971214 18.555094 8.6904783 1.6032666e+09 25 12 0
37.507687 24.03488 7.2494497 1.6032666e+09 61 4 0
37.617451 23.84338 7.4434118 1.6032666e+09 46 11 0
40.643074 18.001966 8.1621771 1.6032666e+09 27 4 0
39.082127 21.315952 9.197896 1.6032666e+09 19 12 0
38.664822 20.542761 7.6534061 1.6032666e+09 67 7 0
38.830791 22.374083 10.273907 1.6032666e+09 29 12 0
40.04451 17.296928 9.4016933 1.6032666e+09 70 11 0
37.535805 24.189463 7.7145538 1.6032666e+09 44 11 0
37.456951 18.740843 9.97682 1.6032666e+09 55 11 0
38.208389 23.870865 10.396523 1.6032666e+09 33 12 0
37.930653 18.907183 9.6381359 1.6032666e+09 48 11 0
38.408432 22.328356 7.5614743 1.6032666e+09 38 10 0
39.838844 21.297558 10.845481 1.6032666e+09 64 14 0
37.802944 23.423557 9.5934124 1.6032666e+09 60 11 0
40.323952 20.528566 10.411473 1.6032666e+09 12 14 0
39.486385 22.258293 10.783075 1.6032666e+09 26 12 0
39.736031 17.274584 7.4005089 1.6032666e+09 100 11 0
37.958866 18.991043 9.8028641 1.6032666e+09 57 14 0
37.777679 24.131283 7.6699553 1.6032666e+09 45 9 0
38.825081 19.669661 9.0644684 1.6032666e+09 11 13 0
41.207863 18.763247 10.808736 1.6032666e+09 41 13 0
38.609066 18.180223 9.8410635 1.6032666e+09 62 10 0
39.594559 18.79524 6.693234 1.6032666e+09 97 4 0
38.134792 22.276331 7.7243776 1.6032666e+09 72 10 0
42.021481 15.542599 7.2562504 1.6032666e+09 85 11 0
39.075123 22.104231 9.62152 1.6032666e+09 42 11 0
38.806297 21.443874 8.0526123 1.6032666e+09 65 10 0
37.569569 24.2677 10.316801 1.6032666e+09 51 14 0
37.880592 18.296911 9.9265337 1.6032666e+09 31 14 0
36.426491 18.327124 5.5510745 1.6032666e+09 45 10 0
41.76738 17.958405 9.6598358 1.6032666e+09 68 10 0
43.75251 19.131985 9.5179605 1.6032666e+09 72 10 0
39.707813 17.610437 8.9219885 1.6032666e+09 38 8 0
40.681431 17.503366 8.6085386 1.6032666e+09 17 13 0
38.772438 18.763817 11.414248 1.6032666e+09 37 5 0
38.83548 16.962999 9.6752653 1.6032666e+09 49 13 0
39.044312 18.611153 8.4605141 1.6032666e+09 32 9 0
42.379368 18.776348 11.0828 1.6032666e+09 33 14 0
38.694954 24.118307 9.0050821 1.6032666e+09 17 13 0
38.943478 19.050968 8.4840803 1.6032666e+09 51 12 0
41.310856 18.17285 10.170602 1.6032666e+09 6 13 0
38.727264 24.039797 10.454406 1.6032666e+09 26 12 0
38.179909 18.492762 9.7904654 1.6032666e+09 57 13 0
38.589252 18.590633 11.542351 1.6032666e+09 34 6 0
38.153694 21.498217 9.2945004 1.6032666e+09 9 13 0
42.915665 18.667997 10.74269 1.6032666e+09 24 12 0
39.294037 21.486382 11.435768 1.6032666e+09 23 4 0
38.590565 16.925756 9.7182436 1.6032666e+09 11 14 0
38.744358 19.82753 9.9653749 1.6032666e+09 60 13 0
39.23748 21.311102 11.491859 1.6032666e+09 48 4 0
40.687202 17.912655 10.274763 1.6032666e+09 44 12 0
37.729874 18.927673 10.254304 1.6032666e+09 42 14 0
38.199387 22.331692 7.5868359 1.6032666e+09 74 10 0
38.661583 21.890265 10.292954 1.6032666e+09 11 14 0
38.494728 20.25565 7.2984242 1.6032666e+09 10 3 0
35.805126 15.593001 5.3556232 1.6032666e+09 71 4 0
38.326134 18.105053 10.000509 1.6032666e+09 41 14 0
40.276436 17.539137 9.0120621 1.6032666e+09 56 12 0
42.400406 18.692947 11.11478 1.6032666e+09 53 14 0
39.049576 18.200178 8.3963737 1.6032666e+09 41 12 0
38.995213 17.521463 9.0009804 1.6032666e+09 46 12 0
43.313042 18.844795 9.6270208 1.6032666e+09 81 11 0
37.944817 21.593264 8.0119286 1.6032666e+09 12 8 0
42.747299 17.832163 8.3329954 1.6032666e+09 29 10 0
40.59985 17.724079 8.5872097 1.6032666e+09 88 10 0
42.96209 21.595797 9.0110807 1.6032666e+09 60 7 0
40.072941 16.744013 7.0713053 1.6032666e+09 100 11 0
38.587757 18.295128 9.6984844 1.6032666e+09 100 11 0
36.452412 16.357157 5.5633087 1.6032666e+09 60 8 0
37.725063 24.70784 8.7416296 1.6032666e+09 72 11 0
37.947311 19.724499 9.8589029 1.6032666e+09 47 14 0
35.287327 23.256037 5.4757948 1.6032666e+09 67 11 0
38.886772 20.634153 7.5324764 1.6032666e+09 100 11 0
37.506985 24.023993 8.8018122 1.6032666e+09 100 11 0
41.671936 17.527958 8.3945827 1.6032666e+09 100 10 0
39.128372 22.387384 6.2473044 1.6032666e+09 22 4 0
40.012505 17.706041 8.5051203 1.6032666e+09 33 13 0
38.465549 17.498962 9.7240477 1.6032666e+09 56 14 0
39.350872 18.061918 10.593793 1.6032666e+09 47 8 0
38.72126 22.353001 9.6332102 1.6032666e+09 56 11 0
38.383102 21.594582 7.9845738 1.6032666e+09 27 9 0
39.046242 17.728746 9.0969973 1.6032666e+09 39 5 0
36.373371 15.516566 5.4093113 1.6032666e+09 77 7 0
40.991001 18.040117 9.5274172 1.6032666e+09 15 8 0
37.688385 23.751408 7.4413643 1.6032666e+09 46 11 0
38.777515 22.941364 8.7885599 1.6032666e+09 70 12 0
38.988632 21.718653 10.022652 1.6032666e+09 33 13 0
38.590637 17.685345 10.135226 1.6032666e+09 56 9 0
40.364822 24.566534 10.253337 1.6032666e+09 39 13 0
40.063984 17.650375 9.2277584 1.6032666e+09 60 8 0
37.941021 19.063719 9.7930412 1.6032666e+09 58 14 0
38.391216 24.499474 10.499768 1.6032666e+09 87 11 0
39.333675 21.234459 10.746648 1.6032666e+09 72 14 0
38.808716 21.528603 8.0495291 1.6032666e+09 90 11 0
42.146809 18.512156 10.691195 1.6032666e+09 21 4 0
40.205708 15.119884 6.8477969 1.6032666e+09 20 11 0
42.225334 18.443897 10.812159 1.6032666e+09 18 14 0
37.746292 24.161282 9.173358 1.6032666e+09 65 10 0
39.783962 21.229853 10.629546 1.6032666e+09 46 14 0
38.822689 21.224678 11.280214 1.6032666e+09 41 11 0
39.481171 22.500628 9.419549 1.6032666e+09 13 13 0
38.757942 23.918699 7.2135072 1.6032666e+09 20 12 0
40.137711 20.672291 10.423332 1.6032666e+09 39 14 0
38.994453 19.484715 10.293894 1.6032666e+09 16 13 0
40.322884 17.492659 7.8118248 1.6032666e+09 84 11 0
38.47765 17.354736 9.7849445 1.6032666e+09 43 14 0
38.106018 23.9828 10.745871 1.6032666e+09 29 14 0
38.465034 23.342262 8.6318121 1.6032666e+09 88 11 0
38.762451 22.118885 9.9317913 1.6032666e+09 15 12 0
40.416992 21.112204 10.532085 1.6032666e+09 13 14 0
38.755119 21.612972 11.412756 1.6032666e+09 20 14 0
39.472923 21.086241 10.59263 1.6032666e+09 56 14 0
39.445854 22.247648 9.3959379 1.6032666e+09 90 11 0
39.173149 19.239992 8.647644 1.6032666e+09 46 10 0
39.700371 22.334948 9.4917192 1.6032666e+09 11 13 0
38.803398 24.253336 7.3950596 1.6032666e+09 33 8 0
37.907276 19.000841 9.7912817 1.6032666e+09 57 14 0
40.425995 21.036877 9.0246305 1.6032666e+09 56 12 0
39.259117 19.046282 8.481842 1.6032666e+09 16 13 0
38.242378 19.292612 11.861163 1.6032666e+09 31 15 0
39.056511 19.872492 11.700405 1.6032666e+09 38 15 0
39.271542 22.97213 8.8616486 1.6032666e+09 17 13 0
38.931686 18.058489 9.8890495 1.6032666e+09 59 14 0
36.377483 16.44804 5.5936971 1.6032666e+09 81 11 0
39.943501 18.554789 6.6104717 1.6032666e+09 68 7 0
38.310204 21.82292 7.7324777 1.6032666e+09 39 11 0
38.875366 21.54496 10.529453 1.6032666e+09 11 11 0
38.294334 24.630562 6.9571571 1.6032666e+09 97 10 0
37.88348 23.579836 7.9559126 1.6032666e+09 28 12 0
39.012314 19.005426 8.5096512 1.6032666e+09 93 10 0
39.411243 21.799362 9.3370094 1.6032666e+09 12 13 0
37.864555 22.30909 7.5806131 1.6032666e+09 41 11 0
38.429028 21.787497 10.287943 1.6032666e+09 7 13 0
37.96772 23.089222 9.0871754 1.6032666e+09 30 10 0
38.257992 21.588039 9.2642326 1.6032666e+09 13 11 0
43.15023 18.636509 10.791669 1.6032666e+09 56 11 0
39.489311 21.492529 11.425837 1.6032666e+09 24 8 0
41.185516 18.299046 10.134512 1.6032666e+09 52 12 0
37.943733 24.007141 7.1822824 1.6032666e+09 51 11 0
38.78738 18.149239 9.879137 1.6032666e+09 53 14 0
38.779663 21.239403 8.6914225 1.6032666e+09 76 11 0
41.008293 21.918329 9.6033621 1.6032666e+09 14 13 0
39.31345 20.396198 10.306225 1.6032666e+09 12 13 0
38.785053 20.578459 7.5022521 1.6032666e+09 11 3 0
37.53735 24.397081 10.364444 1.6032666e+09 100 11 0
39.346039 21.05722 8.6561432 1.6032666e+09 92 12 0
44.182041 18.956215 9.6088276 1.6032666e+09 66 9 0
40.024704 17.342024 9.0624685 1.6032666e+09 66 9 0
40.554718 18.042252 8.4395628 1.6032666e+09 100 11 0
35.977726 15.654526 5.3896847 1.6032666e+09 100 10 0
37.99828 19.544464 9.8686047 1.6032666e+09 11 14 0
39.707298 22.331902 9.418849 1.6032666e+09 60 11 0
40.179779 17.810989 10.066459 1.6032666e+09 23 13 0
41.406982 18.017443 9.4206915 1.6032666e+09 70 11 0
36.016296 18.346115 5.4583707 1.6032666e+09 91 10 0
37.296875 18.917747 9.9961729 1.6032666e+09 37 11 0
37.689255 24.343678 10.458034 1.6032666e+09 49 14 0
41.728474 18.958509 8.8874826 1.6032666e+09 41 7 0
39.196602 19.52128 6.986999 1.6032666e+09 50 3 0
40.020832 17.887733 8.529192 1.6032666e+09 66 6 0
38.621727 18.371874 12.039954 1.6032666e+09 25 14 0
37.581497 24.073545 7.7080116 1.6032666e+09 88 11 0
40.066143 18.83226 9.8533144 1.6032666e+09 11 12 0
38.048557 23.327684 8.2249889 1.6032666e+09 51 12 0
38.969551 20.861561 8.6667557 1.6032666e+09 22 12 0
40.422451 20.465124 10.431578 1.6032666e+09 51 14 0
37.998306 21.268921 8.817008 1.6032666e+09 29 11 0
37.715618 24.230957 7.2277312 1.6032666e+09 56 4 0
38.404247 22.954056 6.6505146 1.6032666e+09 57 11 0
41.183407 18.038294 8.8243666 1.6032666e+09 21 10 0
43.219635 18.351053 9.1690502 1.6032666e+09 94 10 0
42.93924 17.250031 7.8923488 1.6032666e+09 39 11 0
38.81424 17.583963 9.247529 1.6032666e+09 79 10 0
40.424953 17.389183 8.6666269 1.6032666e+09 76 11 0
39.426361 21.532957 10.64286 1.6032666e+09 38 14 0
38.689674 21.863813 7.8629775 1.6032666e+09 78 11 0
39.16156 17.793211 9.228343 1.6032666e+09 52 12 0
38.075096 22.840214 9.3647823 1.6032666e+09 56 10 0
38.709724 18.247185 10.302732 1.6032666e+09 12 12 0
41.154961 16.194782 7.0048237 1.6032666e+09 38 12 0
40.589855 17.839325 10.16399 1.6032666e+09 100 11 0
38.65155 18.090565 5.5420628 1.6032666e+09 9 0 0
38.77742 20.955307 7.8882856 1.6032666e+09 42 7 0
39.344124 18.387884 5.9597316 1.6032666e+09 96 10 0
40.086021 18.771933 10.275744 1.6032666e+09 41 8 0
40.168751 17.739737 8.8274956 1.6032666e+09 76 9 0
39.340225 18.349302 10.359054 1.6032666e+09 78 14 0
40.94371 18.101721 7.9815063 1.6032666e+09 66 3 0
38.288486 24.198969 7.5532823 1.6032666e+09 47 11 0
37.973736 24.310839 10.466861 1.6032666e+09 71 11 0
37.474869 18.951557 9.9060907 1.6032666e+09 51 9 0
41.443054 19.823307 10.945172 1.6032666e+09 41 6 0
38.683632 23.119802 6.7980385 1.6032666e+09 85 11 0
41.280525 17.987818 8.9425936 1.6032666e+09 39 12 0
43.123535 18.66753 10.980778 1.6032666e+09 17 12 0
39.663208 21.773079 9.3659687 1.6032666e+09 13 13 0
44.229706 16.987232 8.1427927 1.6032666e+09 19 11 0
40.544056 18.159668 9.7892351 1.6032666e+09 54 13 0
40.063618 17.917547 8.6749477 1.6032666e+09 39 12 0
38.293579 18.54258 9.627471 1.6032666e+09 62 13 0
38.847977 20.577127 7.7692432 1.6032666e+09 74 11 0
40.511047 18.200607 8.0370646 1.6032666e+09 60 4 0
38.866894 21.55825 9.4355412 1.6032666e+09 27 11 0
38.760529 20.592974 8.1034365 1.6032666e+09 49 4 0
37.329578 24.047827 9.1548567 1.6032666e+09 64 10 0
36.967484 24.698059 5.1319842 1.6032666e+09 40 3 0
42.908119 19.718348 10.001676 1.6032666e+09 59 12 0
37.887352 24.459068 9.568449 1.6032666e+09 52 12 0
38.972519 24.27331 6.7595954 1.6032666e+09 33 11 0
37.752766 24.482622 10.48136 1.6032666e+09 58 11 0
38.22818 18.429316 10.051553 1.6032666e+09 38 13 0
38.419765 19.189487 11.629169 1.6032666e+09 37 15 0
42.248943 18.762449 11.321803 1.6032666e+09 4 13 0
38.538918 21.705769 7.5602541 1.6032666e+09 36 10 0
38.60247 21.731613 7.526083 1.6032666e+09 21 11 0
35.500168 17.507601 5.3207932 1.6032666e+09 65 8 0
38.164043 19.403261 9.0290728 1.6032666e+09 96 11 0
43.498272 18.417315 10.428762 1.6032666e+09 61 9 0
40.281242 18.019367 7.8045726 1.6032666e+09 75 7 0
40.770752 17.825602 10.495358 1.6032666e+09 90 11 0
36.410038 16.323856 5.5895061 1.6032666e+09 100 11 0
38.697323 17.461351 10.184597 1.6032666e+09 69 11 0
42.518906 17.702408 8.560936 1.6032666e+09 48 3 0
38.992218 23.191101 6.8418617 1.6032666e+09 56 11 0
39.116379 22.045486 7.0465541 1.6032666e+09 38 5 0
41.125565 17.784784 9.132761 1.6032666e+09 69 12 0
40.941093 16.888029 7.3911371 1.6032666e+09 79 11 0
39.266396 18.427364 9.9077854 1.6032666e+09 18 13 0
38.517284 21.531776 8.4760628 1.6032666e+09 25 9 0
38.752846 19.106359 9.1645851 1.6032666e+09 71 12 0
39.062504 18.142725 10.627628 1.6032666e+09 31 12 0
39.040363 19.12479 6.1304154 1.6032666e+09 23 2 0
40.13221 17.464027 9.2650242 1.6032666e+09 67 10 0
44.251957 18.940214 9.8041954 1.6032666e+09 18 8 0
38.570156 15.582575 5.5206389 1.6032666e+09 3 3 0
39.132759 22.510647 10.449394 1.6032666e+09 14 12 0
38.499195 17.221626 9.7616653 1.6032666e+09 28 10 0
40.833824 19.504856 10.988909 1.6032666e+09 39 7 0
38.472038 24.108013 7.8663745 1.6032666e+09 81 10 0
37.860748 23.652462 9.4127026 1.6032666e+09 94 11 0
42.507092 19.563246 10.778472 1.6032666e+09 44 6 0
39.201481 19.062887 7.9664125 1.6032666e+09 18 6 0
37.684967 24.271683 9.8100052 1.6032666e+09 77 11 0
38.880085 23.620867 7.2053723 1.6032666e+09 20 12 0
38.662117 20.128992 7.4486122 1.6032666e+09 56 3 0
38.375229 22.637331 8.9804411 1.6032666e+09 64 11 0
40.766644 17.810364 10.300378 1.6032666e+09 47 14 0
40.410168 20.82024 8.8512421 1.6032666e+09 18 13 0
39.091782 20.180416 11.090393 1.6032666e+09 30 14 0
39.335533 22.338232 11.147007 1.6032666e+09 7 14 0
38.268005 21.71067 6.9030356 1.6032666e+09 36 7 0
43.861763 15.712107 8.0661421 1.6032666e+09 54 12 0
38.40255 19.32514 11.391746 1.6032666e+09 45 11 0
39.346607 20.380253 9.2169561 1.6032666e+09 72 12 0
37.772503 23.491039 9.7680645 1.6032666e+09 27 13 0
40.087219 21.335102 9.6117535 1.6032666e+09 40 13 0
39.13176 23.108931 6.341959 1.6032666e+09 18 4 0
39.452023 18.234621 10.550903 1.6032666e+09 36 14 0
36.691902 17.516605 5.6062841 1.6032666e+09 70 6 0
38.642796 24.427168 11.108341 1.6032666e+09 25 14 0
38.947609 17.61524 8.8226357 1.6032666e+09 60 7 0
40.999191 18.109144 9.4042273 1.6032666e+09 92 11 0
41.1745 22.186235 8.9794674 1.6032666e+09 36 12 0
37.437344 24.190638 9.8994074 1.6032666e+09 60 11 0
38.989269 22.300606 9.2318487 1.6032666e+09 56 10 0
43.461342 19.003006 9.3954535 1.6032666e+09 38 8 0
39.313667 17.408628 8.8494196 1.6032666e+09 52 10 0
41.342014 17.846279 9.1993303 1.6032666e+09 73 11 0
39.046471 22.743713 6.7696838 1.6032666e+09 47 10 0
37.545811 24.22648 9.1686411 1.6032666e+09 49 11 0
41.180344 17.731312 9.1535883 1.6032666e+09 73 10 0
42.160946 19.54936 9.283226 1.6032666e+09 32 4 0
43.765968 16.123507 8.1171064 1.6032666e+09 16 12 0
38.352669 22.417013 7.233984 1.6032666e+09 9 7 0
41.24025 17.518606 9.2074366 1.6032666e+09 12 13 0
44.171013 15.720728 8.1059189 1.6032666e+09 18 11 0
37.730873 24.355606 9.70755 1.6032666e+09 70 12 0
39.758804 21.283979 7.0363092 1.6032666e+09 52 11 0
38.894573 21.026672 9.6068754 1.6032666e+09 17 13 0
40.553028 17.588413 8.4824362 1.6032666e+09 100 11 0
38.626114 18.234015 9.4245892 1.6032666e+09 81 11 0
38.132732 22.612581 9.2767868 1.6032666e+09 11 13 0
38.857868 22.667694 8.510972 1.6032666e+09 33 10 0
44.072113 15.77844 8.0996046 1.6032666e+09 36 11 0
38.590176 17.950129 9.24541 1.6032666e+09 53 8 0
39.396404 19.539825 12.010485 1.6032666e+09 9 6 0
39.052269 22.606401 6.6400137 1.6032666e+09 32 11 0
41.405396 18.320736 8.2531919 1.6032666e+09 99 11 0
39.881615 21.50601 9.5425138 1.6032666e+09 37 12 0
42.670216 18.419413 10.438787 1.6032666e+09 7 5 0
39.443573 17.974192 7.9485068 1.6032666e+09 8 3 0
37.925774 21.206226 9.0007477 1.6032666e+09 13 11 0
38.099243 19.241306 9.1106462 1.6032666e+09 55 7 0
41.887184 18.945179 8.5738516 1.6032666e+09 57 7 0
39.559547 21.811554 9.5407867 1.6032666e+09 10 13 0
40.024624 17.217754 9.08638 1.6032666e+09 74 12 0
38.804012 22.524237 7.1248527 1.6032666e+09 57 9 0
41.280575 17.484095 9.3597317 1.6032666e+09 56 11 0
40.104828 21.267099 9.8117409 1.6032666e+09 46 13 0
38.577904 24.484514 11.194724 1.6032666e+09 36 13 0
38.989792 22.695839 6.6311846 1.6032666e+09 48 10 0
39.006447 20.991407 7.6731958 1.6032666e+09 34 10 0
41.230652 18.704784 11.012288 1.6032666e+09 36 13 0
43.362923 16.39554 7.8794875 1.6032666e+09 79 11 0
39.794296 17.827868 9.4788675 1.6032666e+09 65 10 0
40.219105 20.757591 8.7893639 1.6032666e+09 18 13 0
42.512047 19.148142 10.786429 1.6032666e+09 38 3 0
38.547131 17.730106 10.129148 1.6032666e+09 17 14 0
38.649639 18.482412 11.671194 1.6032666e+09 53 6 0
42.489223 21.77092 9.4489231 1.6032666e+09 42 7 0
38.501755 18.50473 9.819787 1.6032666e+09 93 11 0
43.78997 15.839326 8.0756893 1.6032666e+09 91 11 0
39.720215 21.193521 11.03723 1.6032666e+09 60 14 0
41.034721 18.298199 8.7982836 1.6032666e+09 45 13 0
38.759926 20.266893 11.864793 1.6032666e+09 15 14 0
40.467339 21.426964 8.8740578 1.6032666e+09 11 12 0
43.713413 20.943073 9.273694 1.6032666e+09 62 10 0
38.647839 18.358253 10.947964 1.6032666e+09 70 11 0
39.32534 20.136793 10.814935 1.6032666e+09 38 14 0
38.942955 24.281792 9.9663668 1.6032666e+09 63 11 0
38.549526 18.766317 11.605641 1.6032666e+09 38 15 0
37.656448 20.073261 5.3490968 1.6032666e+09 14 3 0
42.226906 18.684439 11.390999 1.6032666e+09 39 14 0
41.783855 18.920101 8.5574799 1.6032666e+09 100 3 0
39.15358 20.189341 11.200908 1.6032666e+09 28 14 0
39.058403 18.072771 8.3856192 1.6032666e+09 41 12 0
40.159157 18.803398 10.901761 1.6032666e+09 56 9 0
38.240005 22.913403 6.5548 1.6032666e+09 58 11 0
40.837208 17.813238 8.595643 1.6032666e+09 55 12 0
43.128479 18.602938 10.057317 1.6032666e+09 100 11 0
38.37817 21.54092 8.5916319 1.6032666e+09 43 6 0
43.933125 23.812685 9.4723577 1.6032666e+09 44 5 0
39.473457 22.231762 9.0647974 1.6032666e+09 95 11 0
38.418919 22.278028 10.723249 1.6032666e+09 10 14 0
39.012985 21.555708 11.163103 1.6032666e+09 28 14 0
39.371956 21.716375 10.014053 1.6032666e+09 12 11 0
39.764168 21.122446 11.020397 1.6032666e+09 66 14 0
44.027168 19.150726 9.3888626 1.6032666e+09 45 11 0
38.570915 19.384523 5.3794851 1.6032666e+09 19 3 0
38.744957 24.712563 9.8250933 1.6032666e+09 64 10 0
38.082466 19.236856 9.2253771 1.6032666e+09 71 12 0
39.708977 17.740318 6.8226676 1.6032666e+09 74 10 0
39.711163 19.035048 7.5209451 1.6032666e+09 38 11 0
39.961151 17.015387 9.4771223 1.6032666e+09 56 5 0
39.379143 21.624382 10.29104 1.6032666e+09 22 13 0
39.308525 22.30851 9.0628519 1.6032666e+09 47 11 0
38.516731 21.108175 8.7741241 1.6032666e+09 26 10 0
38.755035 20.687563 8.8026037 1.6032666e+09 58 11 0
38.693886 19.879622 9.7445107 1.6032666e+09 59 13 0
38.858887 18.503046 10.783043 1.6032666e+09 54 14 0
39.47538 17.914181 7.9329891 1.6032666e+09 31 5 0
37.950031 21.233875 8.8753624 1.6032666e+09 28 11 0
42.775352 18.389151 10.493975 1.6032666e+09 57 13 0
40.67828 18.471855 10.508505 1.6032666e+09 26 13 0
38.097801 19.070251 9.4924421 1.6032666e+09 63 11 0
39.450344 17.558811 7.1791749 1.6032666e+09 35 4 0
37.761047 23.600494 9.6393604 1.6032666e+09 19 13 0
38.544476 19.312204 10.608853 1.6032666e+09 18 13 0
43.331169 21.061819 9.2466822 1.6032666e+09 33 9 0
38.972202 19.408861 8.6796083 1.6032666e+09 67 9 0
41.309799 18.842083 11.028944 1.6032666e+09 31 14 0
36.44194 17.740326 5.6489601 1.6032666e+09 25 8 0
40.066414 17.052649 9.5347338 1.6032666e+09 84 11 0
42.346657 18.453438 10.743643 1.6032666e+09 92 11 0
39.085396 18.30279 8.2084522 1.6032666e+09 59 9 0
38.161247 20.063656 9.8615122 1.6032666e+09 46 12 0
37.624748 24.479673 9.1188345 1.6032666e+09 45 12 0
38.966629 22.978405 6.6830955 1.6032666e+09 46 4 0
35.940659 20.131502 5.6183157 1.6032666e+09 58 9 0
38.336853 22.428333 10.248036 1.6032666e+09 14 12 0
38.752411 21.829424 10.01173 1.6032666e+09 22 12 0
39.506279 21.928192 9.0187368 1.6032666e+09 22 12 0
39.623093 21.586248 10.085242 1.6032666e+09 34 13 0
38.154678 19.61837 9.6310301 1.6032666e+09 58 13 0
38.706478 21.839163 8.8381958 1.6032666e+09 57 10 0
38.840454 19.267282 10.77774 1.6032666e+09 43 12 0
42.456898 19.025473 10.436977 1.6032666e+09 31 13 0
43.514576 21.301212 9.244978 1.6032666e+09 36 8 0
39.322632 19.65346 8.8007383 1.6032666e+09 100 11 0
41.684612 18.862577 10.526733 1.6032666e+09 76 11 0
42.27055 19.649025 10.393785 1.6032666e+09 6 9 0
39.09977 19.174183 7.6790357 1.6032666e+09 53 11 0
43.376148 18.504251 10.156414 1.6032666e+09 40 9 0
36.335445 16.463848 5.5020018 1.6032666e+09 56 3 0
44.302761 16.731268 8.1532469 1.6032666e+09 17 12 0
38.716751 18.48279 8.6485415 1.6032666e+09 100 11 0
38.050953 24.635204 10.311057 1.6032666e+09 26 13 0
38.869541 20.452158 7.9352674 1.6032666e+09 34 9 0
37.395088 23.816158 9.0109882 1.6032666e+09 46 7 0
39.852833 21.047667 7.0272593 1.6032666e+09 52 11 0
38.22366 23.981474 10.334372 1.6032666e+09 100 11 0
38.471596 22.686104 10.087647 1.6032666e+09 8 13 0
39.454128 22.497187 9.477272 1.6032666e+09 12 13 0
38.636887 21.347986 11.562078 1.6032666e+09 4 13 0
38.638893 22.088648 10.174911 1.6032666e+09 14 12 0
40.017433 22.247749 10.343537 1.6032666e+09 13 3 0
37.452263 23.89687 8.881567 1.6032666e+09 83 11 0
38.931652 20.739372 7.75384 1.6032666e+09 66 10 0
42.018337 19.317268 9.731595 1.6032666e+09 63 11 0
38.889591 20.508768 7.9892588 1.6032666e+09 30 10 0
38.475395 18.274235 10.71674 1.6032666e+09 40 14 0
39.585552 19.058311 8.266119 1.6032666e+09 42 5 0
38.141235 22.605005 9.4828978 1.6032666e+09 9 13 0
38.580872 18.107849 10.442164 1.6032666e+09 22 3 0
38.489101 17.571552 9.6079006 1.6032666e+09 48 12 0
38.579025 17.725647 9.4625826 1.6032666e+09 39 13 0
40.465534 17.953796 10.001596 1.6032666e+09 62 10 0
39.524395 17.681889 7.7453942 1.6032666e+09 53 10 0
39.685844 17.750532 9.5891418 1.6032666e+09 77 11 0
41.584938 19.907425 9.099967 1.6032666e+09 66 4 0
40.913651 18.600565 11.107791 1.6032666e+09 43 14 0
43.338547 16.410852 7.8450632 1.6032666e+09 41 9 0
39.716331 17.531643 9.6659508 1.6032666e+09 100 11 0
38.040073 23.39868 8.8382816 1.6032666e+09 69 12 0
36.812469 15.230457 5.5527034 1.6032666e+09 46 8 0
44.508667 18.895452 9.2211781 1.6032666e+09 81 11 0
38.346344 23.853008 7.0969682 1.6032666e+09 46 10 0
41.704857 17.837288 9.3394566 1.6032666e+09 17 10 0
38.239616 21.701937 6.9597316 1.6032666e+09 42 10 0
38.97644 21.708813 10.115947 1.6032666e+09 32 13 0
37.78054 23.119541 9.3938427 1.6032666e+09 48 12 0
39.31815 19.684839 8.9260902 1.6032666e+09 40 11 0
41.665733 18.916529 10.691116 1.6032666e+09 17 13 0
39.140858 23.127752 9.2423506 1.6032666e+09 22 12 0
38.498161 18.669655 11.746481 1.6032666e+09 43 7 0
42.113197 19.159006 10.97346 1.6032666e+09 22 13 0
39.202377 18.299059 8.5765047 1.6032666e+09 84 10 0
