# .PCD v0.7 - Point Cloud Data file format
VERSION 0.7
FIELDS x y z time intensity laser_id label
SIZE 4 4 4 8 4 2 2
TYPE F F F F F U U
COUNT 1 1 1 1 1 1 1
WIDTH 337
HEIGHT 1
VIEWPOINT 0 0 0 1 0 0 0
POINTS 337
DATA ascii
159.23662 0.65047193 37.666172 1.6032667e+09 36 11 0
135.12852 -2.1222436 31.585318 1.6032667e+09 100 3 0
135.62711 -2.1199362 31.735758 1.6032667e+09 80 8 0
135.76349 -2.1170902 31.737713 1.6032667e+09 73 6 0
136.30446 -2.0954354 31.901093 1.6032667e+09 78 3 0
135.00609 -2.1424444 31.578903 1.6032667e+09 92 11 0
138.87451 10.559901 32.356903 1.6032667e+09 28 5 0
140.04955 11.775601 32.740978 1.6032667e+09 48 11 0
137.51233 -15.452424 33.628265 1.6032667e+09 100 12 0
141.57877 -19.812656 33.338459 1.6032667e+09 71 4 0
137.3801 -15.434769 34.132252 1.6032667e+09 100 13 0
122.58612 -37.061749 34.589684 1.6032667e+09 100 7 0
127.35833 -5.6546917 29.192295 1.6032667e+09 68 6 0
127.52893 -5.0956182 29.268696 1.6032667e+09 65 7 0
126.02809 -6.6945233 28.78845 1.6032667e+09 40 4 0
132.35446 -2.179569 30.855146 1.6032667e+09 93 11 0
130.14523 -2.2290297 30.150412 1.6032667e+09 58 4 0
130.8752 -2.1989269 30.402685 1.6032667e+09 69 11 0
130.53801 -2.2272959 30.270182 1.6032667e+09 61 6 0
129.99361 -2.2524881 30.110155 1.6032667e+09 100 3 0
128.88754 -2.2838018 29.763906 1.6032667e+09 97 3 0
129.53784 -2.2499061 29.960848 1.6032667e+09 80 4 0
132.70816 -2.1750023 30.939943 1.6032667e+09 40 6 0
129.95107 -2.2544374 30.092735 1.6032667e+09 47 6 0
132.56572 -2.1855259 30.917223 1.6032667e+09 77 8 0
131.06793 -2.2210059 30.429989 1.6032667e+09 37 6 0
129.34802 -2.2636216 29.931484 1.6032667e+09 65 8 0
132.00145 -2.1945431 30.722044 1.6032667e+09 44 7 0
131.35034 -2.2211816 30.522102 1.6032667e+09 84 5 0
128.34222 -2.3215425 29.847836 1.6032667e+09 100 11 0
131.70552 -2.1921313 30.664873 1.6032667e+09 93 11 0
132.13185 -2.211307 30.770292 1.6032667e+09 100 6 0
133.89177 -2.1636772 31.26796 1.6032667e+09 52 8 0
134.47678 -2.146651 31.402508 1.6032667e+09 100 3 0
129.72768 -2.2455878 30.018499 1.6032667e+09 84 5 0
128.90744 -2.2821372 29.768143 1.6032667e+09 100 6 0
133.13422 -2.1764891 31.058945 1.6032667e+09 70 7 0
134.63486 -2.1255879 31.446075 1.6032667e+09 72 4 0
136.08546 15.683392 34.145039 1.6032667e+09 21 10 0
136.60696 15.770951 34.168163 1.6032667e+09 20 10 0
139.97916 16.59726 34.874454 1.6032667e+09 36 8 0
136.36763 15.729782 34.15728 1.6032667e+09 21 10 0
137.67999 15.931111 34.131462 1.6032667e+09 100 14 0
135.62305 15.598126 34.316227 1.6032667e+09 100 10 0
138.46208 16.081345 34.387264 1.6032667e+09 34 14 0
137.04321 15.840967 34.188488 1.6032667e+09 100 10 0
140.10524 16.276243 34.874302 1.6032667e+09 55 8 0
128.43707 -22.508575 31.202606 1.6032667e+09 24 7 0
129.63449 -23.073133 32.126301 1.6032667e+09 11 8 0
128.42764 -22.23826 31.489803 1.6032667e+09 100 9 0
127.8187 -23.046894 31.31028 1.6032667e+09 16 12 0
127.54825 -23.410269 30.033957 1.6032667e+09 100 10 0
127.35461 -22.802589 32.197536 1.6032667e+09 100 8 0
129.54488 -23.058996 32.505253 1.6032667e+09 11 8 0
112.4174 -7.9324875 26.130333 1.6032667e+09 63 6 0
118.73748 -2.4605477 27.270523 1.6032667e+09 117 3 0
118.08155 -2.4767458 27.11228 1.6032667e+09 100 3 0
120.71969 -2.4431851 27.684286 1.6032667e+09 52 8 0
116.26532 -2.5357084 26.643246 1.6032667e+09 87 5 0
115.50259 -2.5120959 26.443714 1.6032667e+09 78 1 0
122.18467 -2.3851697 28.007895 1.6032667e+09 99 2 0
115.89572 -2.539417 26.536659 1.6032667e+09 60 6 0
120.35777 -2.3970027 27.628391 1.6032667e+09 78 11 0
118.61121 -2.4874506 27.230371 1.6032667e+09 69 6 0
120.84477 -2.4280198 27.709251 1.6032667e+09 96 3 0
117.7483 -2.4917815 27.038807 1.6032667e+09 56 6 0
121.65338 -2.424984 28.010386 1.6032667e+09 88 10 0
121.54602 -2.4031703 27.859472 1.6032667e+09 48 6 0
115.23735 -2.5280392 26.365553 1.6032667e+09 73 6 0
115.49916 -2.5472355 26.448057 1.6032667e+09 100 4 0
138.45544 -16.456697 35.892792 1.6032667e+09 23 11 0
137.71434 -15.239518 35.224239 1.6032667e+09 30 7 0
109.61825 -5.4643383 24.67774 1.6032667e+09 31 7 0
117.24388 -45.149509 29.914251 1.6032666e+09 100 12 0
114.25874 -2.5628035 26.117382 1.6032667e+09 100 4 0
114.86324 -2.5541501 26.288763 1.6032667e+09 66 4 0
112.44516 -2.5809188 25.661497 1.6032667e+09 56 4 0
113.78474 -2.5524113 26.021257 1.6032667e+09 70 8 0
111.76273 -2.6002698 25.488256 1.6032667e+09 100 3 0
112.59041 -2.5837517 25.692444 1.6032667e+09 94 5 0
110.14174 -2.6086411 25.008949 1.6032667e+09 70 1 0
114.3624 -2.5611224 26.138161 1.6032667e+09 100 5 0
110.77171 -2.6229358 25.18268 1.6032667e+09 100 5 0
113.05634 -2.5812109 25.817799 1.6032667e+09 60 1 0
111.33869 -2.6081557 25.34514 1.6032667e+09 47 7 0
113.57323 -2.5728276 25.948853 1.6032667e+09 100 3 0
111.94164 -2.5868585 25.510992 1.6032667e+09 66 5 0
110.62038 -2.6205029 25.132933 1.6032667e+09 100 3 0
111.2646 -2.5951862 25.338245 1.6032667e+09 67 1 0
133.01988 15.178403 35.704254 1.6032667e+09 100 13 0
133.87163 15.396459 35.943565 1.6032667e+09 100 9 0
63.634571 -16.667057 15.182922 1.6032666e+09 85 5 0
64.150749 -16.167723 16.362679 1.6032666e+09 100 11 0
63.519417 -16.663172 15.659905 1.6032666e+09 24 8 0
64.671417 -15.992741 15.826274 1.6032666e+09 92 12 0
63.446083 -16.839088 15.618798 1.6032666e+09 100 11 0
64.520157 -15.94662 16.372635 1.6032666e+09 73 8 0
64.589294 -15.923574 16.270037 1.6032666e+09 100 10 0
63.197079 -16.852827 16.344448 1.6032666e+09 100 10 0
63.451309 -16.807945 15.744637 1.6032666e+09 100 10 0
63.010967 -16.876696 16.560743 1.6032666e+09 100 10 0
64.66227 -16.004715 15.934728 1.6032666e+09 94 12 0
62.936401 -16.892609 16.971525 1.6032666e+09 100 10 0
5.7489128 6.794591 -0.99299073 1.6032666e+09 72 2 0
11.444439 6.9844913 0.43202084 1.6032666e+09 36 7 0
10.964493 6.9812756 0.30061117 1.6032666e+09 78 4 0
71.522064 -3.2064221 15.032961 1.6032666e+09 53 3 0
7.0590758 -5.0565586 0.47419804 1.6032666e+09 73 9 0
7.1699057 -5.0043416 0.50518173 1.6032666e+09 100 4 0
7.1262064 -5.0200715 0.49764979 1.6032666e+09 99 8 0
142.88202 16.962234 36.304203 1.6032667e+09 100 10 0
143.11 16.748585 38.389565 1.6032667e+09 58 15 0
141.14795 16.619766 35.526115 1.6032667e+09 100 10 0
139.43944 16.318811 35.353855 1.6032667e+09 100 10 0
136.13521 15.398797 36.693981 1.6032667e+09 80 10 0
143.40385 17.082291 36.833481 1.6032667e+09 100 10 0
140.76402 16.537632 35.509598 1.6032667e+09 100 10 0
135.30743 15.581821 35.26376 1.6032667e+09 100 7 0
142.23473 16.847231 36.132809 1.6032667e+09 100 10 0
136.10498 15.726089 35.122635 1.6032667e+09 100 10 0
44.48563 -2.240643 9.8597832 1.6032666e+09 255 7 0
46.416206 13.780869 8.1106253 1.6032666e+09 64 10 0
72.977142 -7.4628234 15.876094 1.6032666e+09 88 1 0
66.676277 -14.620975 16.087162 1.6032666e+09 91 6 0
66.645126 -14.952209 16.034161 1.6032666e+09 21 9 0
67.342194 -14.163313 15.859379 1.6032666e+09 38 11 0
67.203003 -14.10394 16.460682 1.6032666e+09 17 10 0
66.530365 -14.656266 16.551146 1.6032666e+09 100 12 0
67.323975 -14.135024 15.977785 1.6032666e+09 42 11 0
66.609085 -14.649257 16.188459 1.6032666e+09 100 9 0
67.166145 -14.059935 16.834787 1.6032666e+09 100 10 0
67.799057 -13.599804 17.377605 1.6032666e+09 100 10 0
66.547173 -14.65008 16.407274 1.6032666e+09 100 9 0
66.420731 -14.586654 16.979988 1.6032666e+09 100 10 0
69.246429 -12.620054 17.718769 1.6032666e+09 100 10 0
69.379593 -12.41484 18.050327 1.6032666e+09 100 10 0
69.622353 -12.255065 18.033686 1.6032666e+09 100 10 0
16.911236 -7.3234272 2.3537319 1.6032666e+09 100 7 0
16.982306 -7.3237581 1.89762 1.6032666e+09 69 7 0
16.406635 -7.169714 3.1448491 1.6032666e+09 139 6 0
16.343632 -7.3268785 3.4733365 1.6032666e+09 48 10 0
15.094625 7.1353526 1.3212345 1.6032666e+09 81 4 0
80.040375 -3.1152868 17.309177 1.6032666e+09 72 1 0
80.15731 -3.1102839 17.34166 1.6032666e+09 64 4 0
80.525734 -3.0656807 17.460583 1.6032666e+09 93 11 0
78.369537 -3.0614431 18.837645 1.6032666e+09 59 14 0
77.95314 -3.1187758 16.705898 1.6032666e+09 59 8 0
76.267319 -3.1048863 16.898031 1.6032666e+09 100 11 0
76.371788 -3.351711 16.215565 1.6032666e+09 48 3 0
76.116066 -3.1219082 17.285925 1.6032666e+09 44 11 0
77.529449 -3.1473806 16.561434 1.6032666e+09 69 6 0
77.722885 -3.090611 16.652962 1.6032666e+09 96 11 0
79.021812 -3.1272044 17.003752 1.6032666e+09 87 3 0
78.49379 -3.1257715 16.852972 1.6032666e+09 96 1 0
76.322342 -3.1628644 16.426928 1.6032666e+09 100 13 0
76.965691 -3.1451473 16.417393 1.6032666e+09 100 3 0
79.138672 -3.1161933 17.035814 1.6032666e+09 88 4 0
76.08532 -3.0937862 18.048319 1.6032666e+09 88 9 0
76.092514 -3.3479581 17.441883 1.6032666e+09 47 12 0
76.914352 -4.909071 16.476189 1.6032666e+09 21 11 0
76.332123 -3.1360846 16.501068 1.6032666e+09 24 11 0
76.0131 -3.3516717 17.626579 1.6032666e+09 94 11 0
78.506592 -3.131146 16.859589 1.6032666e+09 100 3 0
77.953041 -3.1145496 16.692303 1.6032666e+09 50 1 0
76.345093 -3.1486459 16.203188 1.6032666e+09 68 12 0
79.530479 -3.1090307 17.158287 1.6032666e+09 68 2 0
53.470734 -2.3687031 10.872166 1.6032666e+09 98 4 0
49.090794 -3.6095717 11.657329 1.6032666e+09 66 9 0
49.383881 -3.5171857 11.723217 1.6032666e+09 81 10 0
53.803246 -2.2614543 10.937478 1.6032666e+09 56 6 0
54.184181 -2.1967535 11.041716 1.6032666e+09 65 5 0
46.417885 3.8424089 10.024183 1.6032666e+09 186 8 0
49.578156 -3.6783242 9.9707651 1.6032666e+09 77 5 0
47.993065 -3.9146307 9.6196537 1.6032666e+09 101 3 0
45.96204 -2.3142476 10.053156 1.6032666e+09 181 7 0
53.085823 -2.4971237 10.779446 1.6032666e+09 74 0 0
53.731548 -2.1597338 12.713084 1.6032666e+09 84 12 0
52.402813 -2.5416002 12.302758 1.6032666e+09 68 3 0
46.390858 3.8164186 9.8807831 1.6032666e+09 255 8 0
48.739605 -3.881192 9.7808571 1.6032666e+09 88 4 0
48.374481 -3.7832489 11.476295 1.6032666e+09 92 7 0
52.314857 -2.7374766 10.647846 1.6032666e+09 55 12 0
54.777351 -2.1878273 11.166461 1.6032666e+09 54 5 0
53.203636 -2.4332962 10.823865 1.6032666e+09 89 11 0
53.536903 -2.2907348 11.3813 1.6032666e+09 100 11 0
52.694611 -2.4466639 12.474381 1.6032666e+09 63 14 0
52.291908 -2.7604637 10.598758 1.6032666e+09 91 5 0
50.747292 -3.262486 10.271873 1.6032666e+09 67 8 0
46.214203 -2.1967432 10.086213 1.6032666e+09 175 5 0
50.812271 -3.0414705 12.054935 1.6032666e+09 71 9 0
51.386425 -3.0461154 10.421865 1.6032666e+09 60 8 0
50.162075 -3.4663091 10.103113 1.6032666e+09 56 4 0
46.039307 -2.2477388 10.019727 1.6032666e+09 239 3 0
47.384773 -3.8295808 11.249975 1.6032666e+09 72 11 0
46.266426 -2.2638288 10.27725 1.6032666e+09 255 2 0
52.919277 -2.5415263 10.741068 1.6032666e+09 100 1 0
49.384247 -3.7384377 9.9309292 1.6032666e+09 78 3 0
48.691837 -3.8935142 9.7647076 1.6032666e+09 96 3 0
132.2755 38.159599 35.016747 1.6032667e+09 100 12 0
133.43533 38.718681 35.141773 1.6032667e+09 69 13 0
28.559715 7.6002297 4.5626664 1.6032666e+09 56 2 0
36.470573 7.9327712 6.4551406 1.6032666e+09 58 11 0
38.676418 8.0181952 6.9546199 1.6032666e+09 92 2 0
43.861542 15.75532 8.0583954 1.6032666e+09 88 10 0
56.310448 8.5496321 11.183228 1.6032666e+09 97 11 0
56.498386 14.604873 11.681983 1.6032666e+09 92 12 0
129.47722 37.929722 33.43161 1.6032667e+09 100 9 0
130.69649 38.268112 34.389946 1.6032667e+09 41 14 0
132.76268 38.54747 34.054073 1.6032667e+09 100 14 0
130.77005 38.203411 33.677357 1.6032667e+09 100 9 0
129.92984 37.740761 34.424442 1.6032667e+09 40 12 0
129.40154 37.966625 33.798656 1.6032667e+09 8 11 0
129.49745 37.961372 33.677792 1.6032667e+09 8 11 0
130.90813 37.906818 34.658035 1.6032667e+09 55 12 0
63.814579 -3.2187576 13.412066 1.6032666e+09 95 3 0
64.943764 -3.2037807 13.667956 1.6032666e+09 60 1 0
60.40625 -2.4403977 12.529161 1.6032666e+09 83 0 0
55.899555 -2.1015601 13.246702 1.6032666e+09 81 12 0
57.557369 -2.0901146 11.856368 1.6032666e+09 52 2 0
63.293911 -3.1270375 13.283177 1.6032666e+09 46 3 0
58.70911 -2.0505052 12.250818 1.6032666e+09 99 10 0
64.508484 -3.2088342 13.57379 1.6032666e+09 54 4 0
59.033432 -2.0934591 12.192955 1.6032666e+09 53 6 0
55.577625 -2.1652374 11.362895 1.6032666e+09 81 6 0
61.195049 -2.6797619 14.582924 1.6032666e+09 40 13 0
60.77351 -2.5295563 12.634763 1.6032666e+09 78 3 0
58.227821 -2.0508699 12.038774 1.6032666e+09 74 11 0
58.683601 -2.0537457 12.125575 1.6032666e+09 46 4 0
61.756287 -2.7566328 12.883146 1.6032666e+09 84 2 0
57.709435 -2.0397463 11.908835 1.6032666e+09 33 11 0
63.45129 -3.1727355 13.314741 1.6032666e+09 60 4 0
55.924068 -2.1447937 11.475723 1.6032666e+09 48 8 0
55.782372 -2.1555095 11.415732 1.6032666e+09 58 4 0
56.500263 -2.1329155 11.578601 1.6032666e+09 75 1 0
59.328091 -2.1684351 12.289923 1.6032666e+09 68 5 0
64.414825 -3.2070928 13.542608 1.6032666e+09 100 3 0
56.391891 -2.1255565 11.56489 1.6032666e+09 59 2 0
58.121143 -2.0206184 13.819615 1.6032666e+09 74 12 0
62.807083 -3.0198209 13.165262 1.6032666e+09 87 3 0
59.213451 -2.1332617 12.248913 1.6032666e+09 61 2 0
61.267761 -2.6516144 12.763605 1.6032666e+09 70 3 0
63.90081 -3.1968074 13.452976 1.6032666e+09 74 8 0
62.271671 -2.8896389 13.0261 1.6032666e+09 70 1 0
60.245014 -2.3844352 12.510628 1.6032666e+09 58 3 0
61.358788 -2.6635942 12.781321 1.6032666e+09 60 4 0
123.53854 -5.983882 28.196793 1.6032667e+09 41 1 0
65.040337 -3.2168083 13.71529 1.6032666e+09 94 6 0
65.542633 -3.1944568 13.819562 1.6032666e+09 78 3 0
66.25145 -3.2027106 13.978955 1.6032666e+09 68 4 0
69.349457 -3.1812177 14.605737 1.6032666e+09 99 2 0
71.085213 -3.1827612 14.944457 1.6032666e+09 68 4 0
68.752739 -3.1979423 14.471484 1.6032666e+09 100 3 0
68.109283 -3.1944382 14.367782 1.6032666e+09 60 3 0
66.738892 -3.1805596 14.090356 1.6032666e+09 68 2 0
67.56057 -3.2086635 14.246005 1.6032666e+09 100 4 0
67.383575 -3.1843677 14.227038 1.6032666e+09 63 2 0
68.876701 -3.184284 14.508154 1.6032666e+09 52 6 0
69.573631 -3.1957281 14.630225 1.6032666e+09 94 4 0
68.058952 -3.1960402 14.357553 1.6032666e+09 74 7 0
70.467072 -3.1839743 14.815724 1.6032666e+09 72 4 0
70.253998 -3.1946437 14.77726 1.6032666e+09 70 4 0
70.893883 -3.170748 14.933467 1.6032666e+09 73 6 0
69.305603 8.7822819 14.281061 1.6032666e+09 30 7 0
134.29964 15.412462 34.979687 1.6032667e+09 100 6 0
134.73969 15.42275 33.93222 1.6032667e+09 100 10 0
134.61833 15.395565 33.69249 1.6032667e+09 100 10 0
134.43419 15.35516 33.513527 1.6032667e+09 21 10 0
132.93956 18.318052 33.964134 1.6032667e+09 95 10 0
125.18613 22.407452 29.043177 1.6032667e+09 100 12 0
125.21834 22.284353 28.771154 1.6032667e+09 37 9 0
133.14995 17.540684 33.476677 1.6032667e+09 35 11 0
133.65088 15.290973 34.797382 1.6032667e+09 100 7 0
125.03199 22.214211 29.416477 1.6032667e+09 25 12 0
132.19678 24.923801 31.868841 1.6032666e+09 91 13 0
125.09325 22.459576 29.398188 1.6032667e+09 100 9 0
125.19454 22.544563 28.91061 1.6032667e+09 85 7 0
131.95111 24.956999 32.755257 1.6032666e+09 100 14 0
132.25002 24.864902 31.888506 1.6032666e+09 100 14 0
133.048 20.408121 31.961184 1.6032666e+09 100 14 0
125.03567 23.246952 29.039268 1.6032666e+09 100 13 0
125.07208 23.319626 28.671982 1.6032667e+09 30 6 0
131.08162 21.969305 30.751131 1.6032667e+09 100 10 0
125.15556 23.141165 28.597778 1.6032667e+09 50 13 0
125.065 23.328745 28.707947 1.6032667e+09 27 8 0
132.68353 19.819735 34.004105 1.6032667e+09 100 15 0
132.00108 24.840342 32.96032 1.6032667e+09 100 10 0
133.56094 17.458593 32.163559 1.6032666e+09 100 14 0
132.60271 20.565088 33.824287 1.6032667e+09 100 15 0
133.90884 15.322684 34.807842 1.6032667e+09 100 6 0
133.0005 20.482601 32.133331 1.6032666e+09 100 14 0
125.26828 22.46755 28.709244 1.6032667e+09 64 8 0
125.22175 23.083935 28.522041 1.6032667e+09 100 13 0
132.2226 24.852108 32.038883 1.6032667e+09 63 13 0
132.12779 24.939144 32.12368 1.6032667e+09 98 13 0
131.97107 24.912548 32.691067 1.6032667e+09 100 11 0
125.11442 22.195248 28.97747 1.6032667e+09 39 11 0
125.145 22.478163 29.232912 1.6032667e+09 96 9 0
125.04971 22.562372 29.485613 1.6032667e+09 83 9 0
125.07779 23.28054 28.752996 1.6032667e+09 51 6 0
132.67282 20.865097 33.112362 1.6032667e+09 100 11 0
63.691872 -16.696266 14.976767 1.6032666e+09 27 11 0
124.91986 23.240147 29.484249 1.6032667e+09 93 7 0
124.90351 23.303173 29.377655 1.6032667e+09 25 8 0
124.88026 23.367493 29.178764 1.6032667e+09 19 11 0
124.96399 23.304487 29.204018 1.6032667e+09 59 13 0
124.77257 24.908289 28.435047 1.6032667e+09 15 8 0
124.89404 23.323946 29.423525 1.6032667e+09 27 9 0
121.1824 16.786175 27.46414 1.6032667e+09 100 11 0
124.80144 23.935968 29.078428 1.6032667e+09 100 8 0
124.97192 22.217197 29.602375 1.6032667e+09 23 12 0
124.89479 23.347065 29.512283 1.6032667e+09 52 12 0
124.99132 23.30302 28.915512 1.6032667e+09 36 6 0
131.93716 25.932859 32.107506 1.6032667e+09 100 13 0
131.58846 27.280842 33.863266 1.6032667e+09 53 12 0
126.87851 33.828644 29.928417 1.6032667e+09 100 7 0
131.88896 26.067602 32.479755 1.6032667e+09 100 14 0
131.58212 26.004244 33.536453 1.6032667e+09 100 14 0
131.79315 25.949486 32.711605 1.6032667e+09 100 13 0
131.93808 27.272539 32.334187 1.6032667e+09 100 10 0
131.54443 27.322515 33.766941 1.6032667e+09 54 12 0
131.82793 26.473581 33.569866 1.6032667e+09 79 14 0
131.97276 27.200129 32.530674 1.6032667e+09 82 14 0
131.41696 27.350624 33.119434 1.6032667e+09 100 10 0
131.68562 25.901474 33.114105 1.6032667e+09 100 13 0
131.90741 26.657642 33.063736 1.6032667e+09 62 11 0
131.61096 25.954325 33.353714 1.6032667e+09 100 12 0
131.78557 26.616745 33.591572 1.6032667e+09 62 12 0
73.936211 8.8507652 15.431341 1.6032666e+09 54 11 0
109.44866 -2.6377666 24.808149 1.6032667e+09 105 3 0
108.12608 -2.6488819 24.413109 1.6032667e+09 63 6 0
108.49978 -2.6577721 24.524206 1.6032667e+09 65 7 0
109.24924 -4.9767179 24.710772 1.6032666e+09 100 13 0
109.64807 -2.6094689 24.886328 1.6032667e+09 73 13 0
107.70721 -2.6988578 24.688328 1.6032666e+09 30 11 0
110.05633 -2.6224604 24.972883 1.6032667e+09 100 2 0
108.98315 -2.6341321 24.684053 1.6032667e+09 67 8 0
108.83459 -2.6665301 24.617292 1.6032667e+09 96 3 0
