# .PCD v0.7 - Point Cloud Data file format
VERSION 0.7
FIELDS x y z time intensity laser_id label
SIZE 4 4 4 8 4 2 2
TYPE F F F F F U U
COUNT 1 1 1 1 1 1 1
WIDTH 936
HEIGHT 1
VIEWPOINT 0 0 0 1 0 0 0
POINTS 936
DATA ascii
100.57013 7.1643515 22.258858 1.6032667e+09 48 4 0
99.228027 7.3636575 21.939722 1.6032666e+09 26 4 0
97.335419 13.513859 21.231079 1.6032667e+09 44 4 0
95.749046 14.36648 20.822008 1.6032667e+09 30 4 0
98.058357 10.888003 21.272364 1.6032666e+09 90 4 0
100.69843 9.5624027 22.284977 1.6032667e+09 50 3 0
99.313629 9.0886641 21.861601 1.6032666e+09 40 3 0
93.806641 13.408827 20.131618 1.6032666e+09 23 2 0
99.896362 9.7752476 22.060013 1.6032667e+09 72 4 0
99.896637 10.042364 22.003746 1.6032667e+09 54 5 0
99.692551 11.098753 22.004433 1.6032667e+09 25 8 0
99.645973 11.217782 21.959887 1.6032667e+09 52 3 0
97.071556 9.9481678 21.184649 1.6032666e+09 38 6 0
97.124794 7.5968218 21.263723 1.6032666e+09 30 6 0
97.86747 8.0956736 21.47312 1.6032666e+09 34 5 0
96.228378 13.530644 20.841778 1.6032667e+09 42 10 0
95.620216 13.501322 20.682598 1.6032667e+09 63 9 0
95.654755 13.531384 20.711378 1.6032667e+09 42 10 0
94.906105 13.539857 20.459545 1.6032667e+09 45 7 0
96.146477 6.5467882 21.053856 1.6032666e+09 13 5 0
94.881851 5.2886238 20.791628 1.6032666e+09 10 2 0
94.253952 5.2172589 20.617767 1.6032666e+09 8 4 0
94.894753 5.8664341 20.777765 1.6032666e+09 8 11 0
94.051926 5.9224849 20.535917 1.6032666e+09 6 6 0
95.90097 7.7294807 20.948441 1.6032666e+09 9 11 0
96.664268 9.674324 21.109406 1.6032666e+09 87 11 0
96.851868 9.9235439 21.140923 1.6032666e+09 89 11 0
95.602669 7.2127438 20.913855 1.6032666e+09 9 11 0
94.56179 6.9915442 20.622892 1.6032666e+09 5 3 0
94.983223 7.3695745 20.745289 1.6032666e+09 9 11 0
93.975891 6.9228048 20.482191 1.6032666e+09 8 3 0
95.238922 7.8098736 20.79047 1.6032666e+09 10 11 0
94.668205 7.7360101 20.640953 1.6032666e+09 4 8 0
100.27548 6.8887758 22.128824 1.6032667e+09 15 8 0
94.271591 13.551152 20.305849 1.6032667e+09 45 7 0
94.922089 9.2647591 20.659521 1.6032666e+09 63 11 0
95.34166 8.8926506 20.757887 1.6032666e+09 69 12 0
95.048355 9.4715061 20.682327 1.6032666e+09 65 11 0
95.492462 9.5522356 20.780527 1.6032666e+09 74 4 0
97.992249 9.5879421 21.469732 1.6032667e+09 100 11 0
97.079399 9.7193174 21.235041 1.6032666e+09 56 9 0
98.647186 4.9493961 21.776766 1.6032666e+09 10 5 0
99.156494 14.381642 21.706694 1.6032667e+09 33 1 0
100.2063 8.7522383 22.17861 1.6032667e+09 64 11 0
99.861115 6.8722477 22.023481 1.6032666e+09 13 5 0
98.794205 6.5655103 21.759815 1.6032666e+09 11 7 0
93.527496 7.0470209 20.371901 1.6032666e+09 9 11 0
94.039787 8.0704803 20.468718 1.6032666e+09 10 11 0
95.027634 7.6241598 20.729567 1.6032666e+09 4 3 0
98.364304 6.102128 21.672054 1.6032666e+09 10 2 0
99.197884 5.7892179 21.908867 1.6032666e+09 8 11 0
92.128685 6.8307962 20.004927 1.6032666e+09 22 1 0
93.273674 6.8633418 20.312374 1.6032666e+09 33 1 0
92.938065 6.9025717 20.204248 1.6032666e+09 22 4 0
92.377243 7.4365902 20.05299 1.6032666e+09 12 7 0
99.99192 10.187304 22.045784 1.6032666e+09 71 12 0
93.070793 7.9510155 20.206253 1.6032666e+09 12 5 0
92.129875 8.0973473 19.965193 1.6032666e+09 13 10 0
96.96608 14.107322 21.138531 1.6032667e+09 20 2 0
96.785713 4.9609704 21.289749 1.6032666e+09 28 5 0
97.939682 14.323132 21.36153 1.6032667e+09 32 7 0
97.855598 5.938364 21.539446 1.6032666e+09 50 4 0
98.358307 6.367928 21.654749 1.6032666e+09 12 3 0
95.606682 14.117858 20.755617 1.6032667e+09 27 3 0
94.86338 14.298532 20.60548 1.6032666e+09 46 7 0
94.305115 4.9663649 20.660364 1.6032666e+09 10 2 0
96.191711 9.8697004 20.983112 1.6032666e+09 92 11 0
92.953392 9.9140015 20.1299 1.6032666e+09 90 11 0
92.358429 10.005192 19.970554 1.6032666e+09 47 8 0
98.965668 10.147964 21.810085 1.6032667e+09 93 11 0
96.552284 6.5985074 21.155834 1.6032666e+09 22 4 0
97.201492 6.3830843 21.351662 1.6032666e+09 8 4 0
97.082787 7.4746356 21.273466 1.6032666e+09 19 4 0
97.570938 6.9802113 21.42313 1.6032666e+09 10 2 0
97.577507 9.1449623 21.341221 1.6032666e+09 90 9 0
96.909065 9.1649408 21.205915 1.6032666e+09 48 8 0
92.422302 6.8083882 20.130655 1.6032666e+09 13 9 0
92.015549 6.891727 19.974566 1.6032666e+09 19 5 0
98.708115 11.051169 21.703135 1.6032666e+09 69 11 0
95.221436 6.40453 20.831697 1.6032666e+09 15 2 0
94.529694 6.3945322 20.66132 1.6032666e+09 9 11 0
96.138794 7.2419391 21.017313 1.6032666e+09 26 5 0
96.508644 7.4302182 21.138016 1.6032666e+09 14 9 0
97.276619 7.1375613 21.378471 1.6032666e+09 9 11 0
98.58847 7.2734356 21.694256 1.6032666e+09 30 2 0
92.734108 14.141129 20.048664 1.6032667e+09 15 0 0
93.442787 14.348946 20.225851 1.6032667e+09 35 8 0
99.658768 8.1387177 22.045788 1.6032667e+09 64 11 0
98.882782 8.5264339 21.840927 1.6032666e+09 56 11 0
99.717026 5.9796624 21.999331 1.6032666e+09 9 1 0
98.842606 6.1606917 21.795315 1.6032666e+09 18 8 0
93.303841 6.8444366 20.339298 1.6032666e+09 64 11 0
92.926178 13.954544 20.06101 1.6032667e+09 33 4 0
93.845139 13.585642 20.22821 1.6032667e+09 55 4 0
99.34063 8.6636028 21.887741 1.6032666e+09 31 7 0
100.17336 8.6675997 22.171276 1.6032667e+09 64 11 0
99.56105 7.9570217 22.027155 1.6032667e+09 73 11 0
99.169029 8.0526628 21.882174 1.6032666e+09 51 4 0
93.406456 8.3847132 20.278988 1.6032666e+09 27 2 0
94.005699 13.206717 19.943493 1.6032666e+09 64 11 0
94.869171 13.203799 20.114479 1.6032667e+09 65 11 0
91.358421 13.108302 19.100849 1.6032666e+09 52 11 0
91.70179 13.407855 19.541845 1.6032666e+09 63 11 0
96.098747 13.469236 20.733191 1.6032667e+09 31 7 0
94.938019 13.122247 20.036327 1.6032666e+09 67 11 0
95.464172 13.247081 20.282253 1.6032667e+09 51 10 0
96.93158 13.075548 20.58972 1.6032667e+09 52 7 0
97.761383 12.906116 20.895258 1.6032667e+09 64 11 0
98.550293 12.970684 21.575586 1.6032667e+09 66 4 0
96.68351 8.6975174 21.090496 1.6032666e+09 21 7 0
97.36203 8.4243393 21.347425 1.6032666e+09 20 11 0
94.127205 6.7778296 20.526251 1.6032666e+09 11 7 0
95.071503 6.4502339 20.776188 1.6032666e+09 7 12 0
92.112045 8.1713228 19.953619 1.6032666e+09 23 4 0
93.00206 8.5683632 20.158789 1.6032666e+09 16 3 0
91.484619 6.6180034 19.885363 1.6032666e+09 10 9 0
98.616554 8.7162218 21.711674 1.6032666e+09 60 11 0
98.07708 11.785192 21.176592 1.6032666e+09 100 4 0
98.352417 12.057171 21.404892 1.6032666e+09 100 11 0
100.59752 7.9669538 22.311838 1.6032667e+09 48 10 0
94.04821 13.477731 20.197485 1.6032667e+09 40 7 0
93.663399 13.169389 19.784876 1.6032666e+09 65 11 0
95.10704 13.057794 19.943056 1.6032666e+09 52 6 0
96.25927 13.178757 20.469469 1.6032667e+09 66 11 0
96.848618 13.31912 20.915501 1.6032667e+09 49 7 0
92.637177 7.6176763 20.157282 1.6032666e+09 10 9 0
91.960678 7.9171877 19.922426 1.6032666e+09 21 5 0
98.794083 11.999985 21.645243 1.6032666e+09 38 3 0
98.133286 12.137217 21.109268 1.6032666e+09 60 11 0
97.11319 7.9733849 21.30076 1.6032666e+09 9 11 0
96.420654 7.942369 21.088175 1.6032666e+09 9 11 0
98.080505 12.603849 21.109812 1.6032667e+09 45 10 0
98.290283 12.61867 21.392393 1.6032667e+09 76 10 0
97.238663 12.855591 20.534376 1.6032667e+09 28 6 0
91.940353 13.281598 19.441273 1.6032666e+09 60 4 0
92.364601 13.316 19.608519 1.6032666e+09 65 11 0
93.004845 13.264935 19.721718 1.6032666e+09 78 11 0
92.401581 13.118034 19.410753 1.6032666e+09 52 11 0
96.045578 8.6349258 20.947018 1.6032666e+09 16 3 0
96.310913 13.155169 20.46294 1.6032667e+09 99 10 0
97.409218 13.260824 21.093794 1.6032667e+09 60 11 0
97.945389 13.189914 21.405836 1.6032667e+09 66 4 0
98.041763 9.9298124 21.491463 1.6032667e+09 100 11 0
96.972351 8.3040199 21.20826 1.6032666e+09 23 4 0
97.949211 8.5138512 21.505285 1.6032666e+09 60 11 0
92.159286 14.367536 19.800642 1.6032666e+09 23 1 0
91.856453 4.8412609 20.023636 1.6032666e+09 6 3 0
97.67067 6.500217 21.480257 1.6032666e+09 12 2 0
97.067467 6.5023203 21.298199 1.6032666e+09 5 6 0
98.159927 11.430602 21.298414 1.6032666e+09 58 12 0
98.731476 11.108278 21.676823 1.6032666e+09 50 9 0
92.063538 7.4823165 19.965977 1.6032666e+09 16 3 0
92.549713 7.2053928 20.104065 1.6032666e+09 16 5 0
99.764397 5.3504982 22.050789 1.6032666e+09 10 2 0
98.360161 10.475432 21.522692 1.6032667e+09 71 3 0
97.52372 10.043286 21.241488 1.6032667e+09 30 7 0
95.891251 4.9444666 21.046852 1.6032666e+09 30 12 0
96.804703 4.9294548 21.302376 1.6032667e+09 31 2 0
92.063057 8.1120577 19.957859 1.6032666e+09 19 11 0
98.132141 12.419312 21.105787 1.6032667e+09 74 4 0
99.024818 12.754032 21.779531 1.6032667e+09 42 4 0
91.392517 13.458387 19.511354 1.6032666e+09 62 11 0
98.667229 8.1609955 21.801428 1.6032666e+09 64 11 0
99.249916 8.1740627 21.956736 1.6032666e+09 55 11 0
98.116196 11.21736 21.338161 1.6032666e+09 100 11 0
98.058067 11.326786 21.237942 1.6032666e+09 60 3 0
100.45477 4.8995428 22.244434 1.6032666e+09 10 2 0
93.410027 10.097398 20.227892 1.6032666e+09 63 7 0
93.509842 6.0072017 20.401693 1.6032666e+09 6 12 0
94.542145 5.5836468 20.675894 1.6032666e+09 6 12 0
95.214714 5.6364546 20.846081 1.6032666e+09 8 6 0
93.871452 9.821764 20.408924 1.6032666e+09 61 9 0
96.108345 5.391223 21.106239 1.6032666e+09 10 2 0
95.503036 4.8757381 20.957394 1.6032666e+09 10 3 0
92.564041 13.997648 19.967945 1.6032666e+09 47 9 0
96.459702 14.038361 20.990211 1.6032667e+09 52 4 0
98.506851 9.8898811 21.626022 1.6032667e+09 100 11 0
96.769257 5.9840336 21.285049 1.6032666e+09 9 11 0
97.176369 6.1596942 21.350973 1.6032666e+09 6 9 0
98.835663 9.1825695 21.758661 1.6032666e+09 73 11 0
99.690361 9.2449894 22.000784 1.6032667e+09 65 3 0
91.247787 6.0638733 19.815489 1.6032666e+09 4 4 0
98.704475 5.2737398 21.783617 1.6032666e+09 6 12 0
91.478348 14.272242 19.570433 1.6032666e+09 24 4 0
92.344345 9.1391859 20.038813 1.6032666e+09 60 9 0
93.130966 9.0870237 20.183863 1.6032666e+09 87 4 0
91.721962 6.070128 19.935932 1.6032666e+09 7 2 0
92.583252 6.2247043 20.149488 1.6032666e+09 6 5 0
91.827644 5.5928073 19.980192 1.6032666e+09 10 2 0
92.447792 5.2304001 20.165775 1.6032666e+09 10 2 0
91.47319 5.2727103 19.911869 1.6032666e+09 10 5 0
91.335312 4.8545809 19.891092 1.6032666e+09 10 2 0
91.901192 14.357555 19.743258 1.6032666e+09 47 3 0
97.481407 5.4275761 21.472668 1.6032666e+09 8 11 0
96.787544 5.3109798 21.276075 1.6032666e+09 7 5 0
91.869125 13.824924 19.747404 1.6032666e+09 57 1 0
93.159607 9.5322828 20.226723 1.6032666e+09 51 9 0
92.49292 9.3946905 20.023636 1.6032666e+09 76 4 0
97.617165 14.323566 21.287153 1.6032666e+09 30 4 0
98.647453 14.337508 21.500681 1.6032667e+09 27 7 0
93.920494 9.9155893 20.413914 1.6032666e+09 52 9 0
98.095009 11.603604 21.345814 1.6032666e+09 61 9 0
91.467491 7.0353494 19.835718 1.6032666e+09 10 2 0
93.365707 7.8864808 20.277462 1.6032666e+09 10 4 0
92.927307 6.0259371 20.247635 1.6032666e+09 7 2 0
92.362946 5.9490137 20.094719 1.6032666e+09 6 3 0
99.218033 8.091835 21.94949 1.6032666e+09 74 11 0
98.133286 8.0964174 21.544266 1.6032666e+09 70 4 0
93.098289 5.2107143 20.323151 1.6032666e+09 7 2 0
98.49176 5.6135139 21.718103 1.6032666e+09 10 2 0
92.71843 13.104695 19.461683 1.6032666e+09 47 7 0
99.197426 5.6714516 21.902418 1.6032666e+09 12 9 0
94.426926 9.741559 20.501238 1.6032666e+09 74 7 0
94.860329 10.045986 20.561272 1.6032666e+09 66 4 0
95.583054 10.003701 20.776453 1.6032666e+09 40 7 0
98.384277 11.036661 21.456055 1.6032667e+09 80 4 0
100.6588 10.215309 22.297165 1.6032667e+09 100 11 0
93.70137 5.1542006 20.490725 1.6032666e+09 10 2 0
93.761436 4.9234924 20.499496 1.6032666e+09 7 5 0
94.444122 14.273065 20.483685 1.6032666e+09 30 4 0
99.129547 13.738238 21.780373 1.6032666e+09 37 10 0
100.77256 9.2101822 22.377485 1.6032667e+09 75 11 0
100.27535 7.956491 22.264172 1.6032667e+09 54 11 0
100.77124 6.5519781 22.26128 1.6032667e+09 10 2 0
100.24986 6.1603365 22.193277 1.6032667e+09 8 11 0
99.758476 14.32009 21.812113 1.6032667e+09 27 1 0
91.285889 13.506482 19.502481 1.6032666e+09 31 11 0
99.043243 4.9733877 21.882212 1.6032666e+09 6 9 0
91.797195 9.4988852 19.849327 1.6032666e+09 65 4 0
95.370003 5.8752956 20.883684 1.6032666e+09 7 2 0
94.705696 6.214335 20.692039 1.6032666e+09 3 3 0
93.128426 13.707688 20.1028 1.6032666e+09 28 1 0
100.69502 4.9410667 22.320974 1.6032666e+09 8 11 0
91.489143 8.6598539 19.774694 1.6032666e+09 15 4 0
91.307022 7.5860901 19.771765 1.6032666e+09 4 2 0
96.08139 9.1614237 20.9625 1.6032666e+09 94 4 0
95.919548 6.2525854 21.021784 1.6032666e+09 10 2 0
91.845688 8.9162903 19.869484 1.6032666e+09 63 5 0
100.55975 12.144413 22.21352 1.6032666e+09 54 7 0
100.42564 11.925472 22.20084 1.6032667e+09 49 10 0
99.511658 12.231012 21.881359 1.6032667e+09 28 8 0
100.23634 11.22271 22.063524 1.6032667e+09 85 4 0
97.472359 8.9197845 21.325058 1.6032666e+09 9 2 0
96.473473 9.2678566 21.063934 1.6032666e+09 47 6 0
95.939957 10.085609 20.878204 1.6032666e+09 66 4 0
93.93026 8.5823097 20.381073 1.6032666e+09 4 4 0
91.235123 9.5524426 19.708307 1.6032666e+09 78 4 0
93.613266 9.1089745 20.30698 1.6032666e+09 51 5 0
94.52388 8.4590397 20.55353 1.6032666e+09 14 4 0
95.412903 8.5670595 20.775507 1.6032666e+09 4 3 0
97.83223 5.6812291 21.542904 1.6032666e+09 10 3 0
91.714745 9.9172411 19.812449 1.6032666e+09 99 4 0
100.70907 8.3726044 22.336523 1.6032667e+09 50 10 0
100.67652 13.766604 22.117107 1.6032666e+09 61 9 0
99.725632 13.080669 21.887865 1.6032667e+09 37 6 0
98.821861 7.4201131 21.774199 1.6032666e+09 80 4 0
99.806862 7.1422529 22.065634 1.6032667e+09 68 3 0
98.721092 9.812211 21.68107 1.6032666e+09 50 8 0
97.981964 14.015098 21.364531 1.6032667e+09 31 7 0
99.41568 12.525316 21.790392 1.6032667e+09 76 4 0
100.44187 7.1551433 22.212414 1.6032667e+09 61 3 0
100.66245 6.0297003 22.253586 1.6032666e+09 6 9 0
100.54465 5.3631129 22.244511 1.6032667e+09 5 1 0
100.48181 5.4712276 22.233868 1.6032667e+09 6 9 0
98.652725 13.983521 21.50502 1.6032666e+09 31 7 0
45.137798 -56.265766 15.241387 1.6032666e+09 42 13 0
45.5336 -55.002201 14.485036 1.6032666e+09 100 13 0
45.8978 -54.726311 14.482781 1.6032666e+09 100 13 0
45.597122 -55.135227 15.054794 1.6032666e+09 41 13 0
45.073269 -55.334007 14.497062 1.6032666e+09 100 13 0
87.14064 -5.8155184 21.739204 1.6032666e+09 27 5 0
88.746948 -12.559952 22.015419 1.6032666e+09 87 7 0
88.716331 -12.763682 21.229237 1.6032666e+09 46 6 0
90.972748 -13.449532 20.206457 1.6032666e+09 73 6 0
90.125 -5.1816435 19.87319 1.6032666e+09 77 3 0
87.249977 -9.7933426 19.14953 1.6032666e+09 78 3 0
88.012833 -12.096974 19.765348 1.6032666e+09 20 5 0
89.429283 -10.91765 19.846563 1.6032666e+09 54 5 0
88.491074 -11.574017 19.594858 1.6032666e+09 27 3 0
88.293045 -10.68317 19.547441 1.6032666e+09 117 3 0
88.689896 -12.839796 19.914917 1.6032666e+09 100 4 0
90.258148 -9.519495 19.920662 1.6032666e+09 100 3 0
85.374069 -7.1775036 18.544388 1.6032666e+09 51 2 0
88.696434 -11.250312 19.648163 1.6032666e+09 100 3 0
90.987358 -12.418619 20.207527 1.6032666e+09 96 6 0
90.31031 -12.80953 20.049093 1.6032666e+09 75 4 0
89.774467 -7.390882 19.820797 1.6032666e+09 75 7 0
81.793053 -6.2461877 17.406366 1.6032666e+09 24 2 0
89.846458 -10.390975 19.858347 1.6032666e+09 100 4 0
89.974297 -6.7353225 19.826418 1.6032666e+09 74 3 0
91.164261 -11.517263 20.224674 1.6032666e+09 57 3 0
90.501854 -11.458412 20.008362 1.6032666e+09 100 7 0
83.404388 -4.8733435 18.086586 1.6032666e+09 64 2 0
90.934166 -10.071956 20.034126 1.6032666e+09 77 7 0
87.242447 -10.138142 19.178156 1.6032666e+09 100 4 0
90.064377 -10.943569 19.946974 1.6032666e+09 91 6 0
84.884132 -10.725998 18.487152 1.6032666e+09 51 7 0
90.924889 -9.2956896 20.092258 1.6032666e+09 74 3 0
87.256134 -5.4499116 18.957453 1.6032666e+09 75 5 0
85.615433 -5.6056933 18.541843 1.6032666e+09 68 7 0
90.909073 -8.4813786 20.073383 1.6032666e+09 94 3 0
89.612045 -7.2263327 19.763771 1.6032666e+09 100 3 0
89.052872 -8.3280697 19.604931 1.6032666e+09 76 3 0
88.137062 -8.241189 19.377554 1.6032666e+09 97 3 0
89.650032 -8.3493242 19.776897 1.6032666e+09 100 4 0
90.828392 -13.044552 20.178404 1.6032666e+09 59 8 0
90.2285 -13.222939 19.971613 1.6032666e+09 80 7 0
83.342606 -13.21011 20.266243 1.6032666e+09 63 14 0
85.910065 -4.8572283 18.719547 1.6032666e+09 81 3 0
86.960289 -4.9491239 18.983244 1.6032666e+09 55 0 0
87.669273 -9.5130987 19.244699 1.6032666e+09 100 4 0
91.150131 -8.0841618 20.117332 1.6032666e+09 51 9 0
90.501099 -7.9052134 19.978079 1.6032666e+09 100 4 0
90.828835 -10.666771 20.022484 1.6032666e+09 86 7 0
90.237236 -5.9751377 19.931442 1.6032666e+09 69 3 0
83.157967 -6.6766424 17.864609 1.6032666e+09 31 5 0
91.111389 -7.0339336 20.189459 1.6032666e+09 48 1 0
90.730934 -7.2718649 20.045124 1.6032666e+09 100 4 0
88.019188 -8.7867146 19.322466 1.6032666e+09 100 4 0
88.774193 -9.2787628 19.599667 1.6032666e+09 100 4 0
87.72039 -11.000108 19.410334 1.6032666e+09 100 4 0
87.808052 -5.1558981 19.159164 1.6032666e+09 57 7 0
86.180237 -5.288991 18.693357 1.6032666e+09 75 5 0
88.146179 -5.8926687 19.221418 1.6032666e+09 37 5 0
86.810608 -5.7726545 18.815498 1.6032666e+09 53 6 0
89.501015 -7.6809797 19.766186 1.6032666e+09 100 4 0
85.26899 -5.3705521 18.43578 1.6032666e+09 61 4 0
89.429344 -6.3412342 19.710388 1.6032666e+09 100 4 0
86.4823 -4.9269381 18.824705 1.6032666e+09 80 9 0
87.655869 -4.8993478 19.153648 1.6032666e+09 84 5 0
87.110016 -6.1189632 18.941748 1.6032666e+09 100 4 0
85.766449 -5.9658999 18.50169 1.6032666e+09 85 4 0
88.384666 -4.9133787 19.335419 1.6032666e+09 78 4 0
87.316978 -6.8236246 19.059086 1.6032666e+09 96 4 0
86.458 -6.5762267 18.764847 1.6032666e+09 100 4 0
88.077057 -9.4260073 19.387478 1.6032666e+09 100 4 0
88.578697 -9.5468178 19.509314 1.6032666e+09 82 7 0
87.674026 -6.9239984 19.144983 1.6032666e+09 90 4 0
86.595055 -7.324017 18.83437 1.6032666e+09 76 4 0
86.895775 -6.604939 18.900358 1.6032666e+09 100 4 0
86.054321 -6.5261345 18.610336 1.6032666e+09 92 4 0
90.393318 -5.5761685 19.961176 1.6032666e+09 85 4 0
89.642319 -9.7394972 19.778404 1.6032666e+09 100 4 0
88.073097 -10.419096 19.436733 1.6032666e+09 83 3 0
89.512344 -10.314301 19.799625 1.6032666e+09 95 3 0
87.982162 -5.6024933 19.152699 1.6032666e+09 80 4 0
88.999451 -5.5750813 19.507105 1.6032666e+09 55 1 0
87.897697 -5.7518673 19.142469 1.6032666e+09 82 4 0
86.270615 -6.1838965 18.676348 1.6032666e+09 91 3 0
85.359131 -5.7399216 18.391859 1.6032666e+09 87 4 0
87.387444 -8.4872684 19.150352 1.6032666e+09 62 3 0
86.279785 -8.1976118 18.746965 1.6032666e+09 100 4 0
82.926613 -8.2284184 17.864815 1.6032666e+09 52 3 0
81.822723 -6.3091583 17.451902 1.6032666e+09 52 0 0
89.218163 -5.2159109 19.548491 1.6032666e+09 68 5 0
89.095039 -5.2700148 19.474045 1.6032666e+09 100 4 0
90.147942 -8.4767275 19.89043 1.6032666e+09 94 3 0
88.647568 -4.9765482 19.418993 1.6032666e+09 47 7 0
89.123016 -4.975481 19.547972 1.6032666e+09 65 6 0
90.916847 -6.2138166 20.139891 1.6032666e+09 69 2 0
90.704201 -5.867135 20.031679 1.6032666e+09 100 4 0
90.315788 -6.8272066 19.937616 1.6032666e+09 69 4 0
87.90451 -7.4789462 19.295984 1.6032666e+09 82 3 0
86.848312 -7.4479432 18.89686 1.6032666e+09 33 6 0
88.989685 -6.9015851 19.543118 1.6032666e+09 72 7 0
90.721016 -8.7354212 20.037409 1.6032666e+09 56 3 0
88.417877 -7.6825275 19.456316 1.6032666e+09 97 3 0
86.700157 -8.0867281 18.873798 1.6032666e+09 42 6 0
88.916168 -7.7626057 19.564953 1.6032666e+09 100 4 0
87.590797 -7.7793956 19.137682 1.6032666e+09 70 7 0
86.353378 -8.0805311 18.75754 1.6032666e+09 95 4 0
91.108818 -9.9445505 20.145418 1.6032666e+09 90 3 0
90.699318 -10.36786 20.079416 1.6032666e+09 100 3 0
89.841621 -7.8655143 19.827436 1.6032666e+09 82 3 0
90.784042 -8.6445789 20.050449 1.6032666e+09 92 3 0
91.094727 -8.524477 20.114605 1.6032666e+09 53 8 0
90.749626 -9.6213131 20.041998 1.6032666e+09 100 3 0
91.145531 -9.836545 20.162487 1.6032666e+09 99 3 0
90.316391 -11.9034 20.024548 1.6032666e+09 60 6 0
91.051521 -12.280709 20.213295 1.6032666e+09 68 6 0
89.752144 -12.248349 19.910091 1.6032666e+09 100 3 0
90.73243 -12.071342 20.139511 1.6032666e+09 100 4 0
90.876312 -12.586845 20.20092 1.6032666e+09 72 6 0
87.881142 -9.2719479 19.303511 1.6032666e+09 91 3 0
86.069572 -8.5181971 18.71767 1.6032666e+09 62 4 0
89.237877 -6.0341406 19.589668 1.6032666e+09 85 4 0
89.034508 -6.3914251 19.560741 1.6032666e+09 96 4 0
86.85437 -6.6724181 18.895084 1.6032666e+09 100 4 0
88.458817 -6.6706553 19.355614 1.6032666e+09 87 4 0
87.35276 -10.037411 19.188242 1.6032666e+09 100 4 0
87.063095 -7.4429846 19.001305 1.6032666e+09 100 4 0
86.082626 -7.3456278 18.716434 1.6032666e+09 73 3 0
86.811287 -7.9155784 18.918276 1.6032666e+09 88 3 0
85.94381 -7.5994072 18.683628 1.6032666e+09 65 3 0
89.115425 -8.8611155 19.649303 1.6032666e+09 45 2 0
90.611877 -13.511348 20.141371 1.6032666e+09 100 3 0
90.210632 -13.869722 20.068644 1.6032666e+09 100 3 0
121.58057 29.448227 27.257671 1.6032667e+09 21 3 0
127.56019 29.451174 29.289776 1.6032667e+09 37 6 0
127.70233 29.566376 29.881237 1.6032667e+09 50 6 0
127.18529 29.298119 29.296762 1.6032667e+09 37 6 0
125.33309 28.548447 29.184185 1.6032667e+09 27 5 0
120.17738 25.800116 26.84915 1.6032667e+09 39 4 0
121.45509 27.893057 27.205183 1.6032667e+09 37 3 0
123.37383 30.713497 27.676451 1.6032667e+09 14 6 0
122.79843 31.481197 27.512932 1.6032667e+09 16 5 0
123.20357 31.820681 27.683037 1.6032667e+09 22 4 0
120.48202 26.396082 26.929394 1.6032667e+09 42 6 0
120.59615 24.93734 26.968748 1.6032667e+09 42 4 0
120.04184 26.299057 26.820524 1.6032667e+09 49 3 0
125.52552 28.568092 28.708933 1.6032667e+09 43 4 0
123.32101 28.945232 27.719692 1.6032667e+09 26 4 0
125.99568 28.803719 29.166878 1.6032667e+09 47 6 0
121.64149 30.150742 27.209749 1.6032667e+09 13 6 0
121.3162 28.082245 27.167023 1.6032667e+09 38 3 0
121.31543 29.699986 27.174519 1.6032667e+09 22 3 0
121.14282 32.498947 27.03863 1.6032667e+09 18 5 0
120.3035 26.734362 26.909397 1.6032667e+09 43 3 0
120.82919 25.991173 27.029018 1.6032667e+09 50 10 0
120.88685 28.681311 27.046448 1.6032667e+09 40 3 0
120.3531 30.995665 26.803566 1.6032667e+09 38 11 0
123.95767 33.272987 28.503965 1.6032667e+09 100 11 0
124.01523 33.252434 28.262493 1.6032667e+09 100 10 0
123.21365 24.676287 27.758152 1.6032667e+09 66 7 0
124.56081 25.831541 28.578735 1.6032667e+09 25 11 0
123.28545 25.383759 27.739637 1.6032667e+09 39 7 0
120.25642 29.470533 26.774475 1.6032667e+09 35 11 0
120.59897 24.612082 26.982361 1.6032667e+09 41 5 0
121.70965 31.012751 27.280416 1.6032667e+09 24 3 0
122.54572 31.264616 27.382717 1.6032667e+09 38 11 0
124.28986 27.232065 28.513306 1.6032667e+09 28 11 0
120.42972 29.310947 26.918936 1.6032667e+09 42 3 0
125.78549 28.660084 28.705093 1.6032667e+09 43 4 0
126.35136 29.018522 29.508348 1.6032667e+09 49 10 0
124.28188 33.342476 28.474026 1.6032667e+09 100 11 0
125.17923 33.489517 28.513227 1.6032667e+09 100 10 0
120.67118 30.226927 26.876183 1.6032667e+09 36 11 0
121.18471 25.497175 27.159893 1.6032667e+09 67 3 0
125.14082 33.418667 28.375746 1.6032667e+09 100 10 0
124.89625 24.192097 28.484808 1.6032667e+09 24 11 0
127.84551 30.519459 30.177364 1.6032667e+09 100 12 0
122.60245 26.151783 27.541716 1.6032667e+09 100 10 0
122.97321 26.539303 27.625099 1.6032667e+09 48 5 0
124.45287 26.618149 28.600662 1.6032667e+09 47 10 0
124.69217 31.45138 28.072145 1.6032667e+09 18 9 0
127.5502 32.731781 29.034691 1.6032666e+09 100 12 0
123.88554 33.316998 29.105526 1.6032667e+09 100 11 0
124.29524 33.416508 29.80784 1.6032667e+09 100 11 0
124.81768 33.50349 30.311275 1.6032667e+09 100 10 0
120.69228 33.431683 26.901697 1.6032667e+09 24 4 0
120.97987 24.617538 27.093876 1.6032667e+09 33 4 0
121.75564 24.673826 27.324589 1.6032667e+09 61 3 0
127.74487 30.927893 30.237595 1.6032667e+09 100 13 0
127.59398 32.534813 29.021019 1.6032666e+09 100 12 0
122.38904 28.254831 27.457329 1.6032667e+09 55 5 0
121.69779 28.241318 27.219225 1.6032667e+09 24 6 0
120.02163 29.059277 26.718439 1.6032667e+09 34 11 0
124.85703 33.50267 29.727812 1.6032667e+09 100 11 0
124.43837 33.406311 29.164831 1.6032667e+09 100 11 0
125.28183 33.551239 30.532171 1.6032667e+09 100 10 0
120.67323 24.147539 27.047661 1.6032667e+09 44 3 0
124.33895 27.599068 27.97847 1.6032667e+09 32 11 0
124.72705 24.738512 28.684818 1.6032667e+09 100 13 0
121.83757 30.887335 27.282368 1.6032667e+09 21 4 0
122.30957 30.639629 27.307602 1.6032667e+09 37 11 0
124.48358 25.697838 28.819925 1.6032667e+09 28 7 0
123.15085 25.797386 27.705677 1.6032667e+09 65 4 0
127.45825 33.150341 29.124424 1.6032667e+09 100 12 0
124.38733 26.999645 28.42234 1.6032667e+09 19 12 0
127.45631 33.232086 29.002789 1.6032666e+09 6 11 0
127.50703 32.742718 29.287706 1.6032666e+09 100 12 0
124.57214 26.357956 28.284424 1.6032667e+09 19 12 0
124.66046 25.544796 28.336788 1.6032667e+09 47 10 0
121.14801 30.259905 27.002081 1.6032667e+09 36 11 0
121.31591 24.236944 27.160126 1.6032667e+09 47 10 0
125.45978 33.599739 29.788586 1.6032667e+09 100 11 0
124.46374 33.369328 28.557619 1.6032667e+09 100 11 0
122.03849 24.232733 27.389088 1.6032667e+09 47 10 0
125.08035 33.49733 29.228458 1.6032667e+09 100 11 0
120.11629 33.546719 26.754353 1.6032667e+09 21 9 0
123.60834 33.319237 29.804329 1.6032667e+09 100 11 0
124.68289 25.499434 28.300098 1.6032667e+09 47 10 0
124.23463 27.522299 28.525658 1.6032667e+09 29 11 0
124.4625 26.678684 28.401619 1.6032667e+09 18 12 0
120.81748 30.550262 26.916954 1.6032667e+09 37 11 0
127.58022 32.5345 29.118254 1.6032666e+09 100 12 0
121.0573 30.982428 26.975492 1.6032667e+09 38 11 0
124.72742 25.257896 28.535259 1.6032667e+09 46 10 0
123.83494 33.17791 28.063082 1.6032667e+09 100 10 0
121.11266 33.00959 27.034204 1.6032667e+09 18 5 0
123.93368 33.279781 29.439171 1.6032667e+09 100 8 0
123.75056 33.224937 28.65206 1.6032667e+09 100 10 0
125.07222 28.401716 28.816992 1.6032667e+09 43 4 0
124.13853 28.144142 27.930294 1.6032667e+09 38 8 0
121.69228 25.972153 27.223673 1.6032667e+09 26 4 0
122.53948 25.743452 27.513018 1.6032667e+09 50 10 0
121.63985 24.63114 27.244482 1.6032667e+09 38 7 0
124.63612 24.565491 29.116116 1.6032667e+09 11 11 0
122.32021 24.660225 27.47401 1.6032667e+09 74 3 0
124.66127 24.126514 29.049179 1.6032667e+09 100 13 0
125.71195 33.526386 28.549612 1.6032667e+09 100 10 0
127.23591 33.342617 29.921373 1.6032667e+09 100 11 0
120.38414 33.024158 26.869766 1.6032667e+09 28 3 0
123.71751 33.292767 29.627419 1.6032667e+09 100 11 0
127.31425 33.074833 29.733694 1.6032667e+09 100 11 0
124.6369 33.274811 28.296234 1.6032667e+09 92 8 0
120.21926 28.263966 26.873365 1.6032667e+09 39 3 0
120.20449 27.78561 26.839495 1.6032667e+09 35 6 0
121.44158 30.7024 27.135544 1.6032667e+09 20 4 0
122.54411 27.89003 27.493322 1.6032667e+09 53 5 0
121.8363 27.702978 27.270351 1.6032667e+09 26 5 0
121.99277 27.194538 27.31179 1.6032667e+09 51 7 0
121.31748 26.746397 27.180132 1.6032667e+09 34 3 0
122.64007 27.042147 27.496 1.6032667e+09 51 7 0
121.69635 27.032444 27.227032 1.6032667e+09 30 4 0
127.38882 32.407143 30.126568 1.6032667e+09 98 9 0
124.98938 32.43924 28.170391 1.6032667e+09 22 8 0
124.73402 31.756739 28.085138 1.6032667e+09 19 9 0
123.94472 31.682352 27.844913 1.6032667e+09 19 9 0
123.46518 29.674826 27.699446 1.6032667e+09 15 5 0
124.31599 29.49815 27.984921 1.6032667e+09 16 9 0
124.83242 24.49571 28.477722 1.6032667e+09 100 9 0
129.35487 24.465254 30.001574 1.6032667e+09 99 8 0
127.12417 29.413153 29.75132 1.6032667e+09 28 11 0
126.86643 29.189947 29.469719 1.6032667e+09 36 6 0
127.55489 31.683073 30.20462 1.6032667e+09 100 13 0
121.75211 28.701151 27.276163 1.6032667e+09 26 4 0
122.14284 28.723429 27.393686 1.6032667e+09 20 8 0
120.94626 26.282942 27.054445 1.6032667e+09 51 10 0
121.06219 25.678165 27.123686 1.6032667e+09 38 3 0
121.80641 26.075418 27.314882 1.6032667e+09 40 3 0
122.72084 30.842825 27.539656 1.6032667e+09 21 8 0
121.6166 25.051592 27.232363 1.6032667e+09 29 7 0
122.55375 25.083403 27.508144 1.6032667e+09 66 4 0
124.997 33.467949 28.500299 1.6032667e+09 100 10 0
125.13618 33.502144 29.230576 1.6032667e+09 100 11 0
122.38668 24.254503 27.462921 1.6032667e+09 35 6 0
123.52779 33.295212 30.025963 1.6032667e+09 100 11 0
120.0753 33.107952 26.735836 1.6032667e+09 13 7 0
120.48831 28.38357 26.875391 1.6032667e+09 25 4 0
120.07924 31.438194 26.822952 1.6032667e+09 37 3 0
120.81251 27.72493 26.970915 1.6032667e+09 24 4 0
26.583021 -5.8531585 4.3291407 1.6032666e+09 93 4 0
26.523939 -4.8040018 4.5184116 1.6032666e+09 100 2 0
24.136997 -4.9455905 3.9356389 1.6032666e+09 93 11 0
62.267799 -16.839727 17.739719 1.6032666e+09 100 11 0
110.39317 11.52156 24.928677 1.6032667e+09 48 3 0
110.2505 10.380135 24.905487 1.6032667e+09 90 4 0
110.18408 11.062238 24.876768 1.6032667e+09 87 7 0
110.18604 11.60494 24.865215 1.6032667e+09 56 7 0
107.75229 9.5431995 24.18063 1.6032667e+09 61 3 0
107.7968 9.922637 24.218456 1.6032667e+09 66 5 0
108.4557 5.4178591 24.297691 1.6032667e+09 11 1 0
110.23981 13.511225 24.723196 1.6032667e+09 90 4 0
108.60379 7.2641125 24.317547 1.6032667e+09 37 6 0
110.16183 10.055834 24.89773 1.6032667e+09 72 7 0
110.23465 11.878409 24.85944 1.6032667e+09 65 7 0
110.13108 12.355334 24.794456 1.6032667e+09 66 3 0
107.59685 7.2444825 24.07473 1.6032667e+09 50 1 0
110.27374 13.477064 24.726927 1.6032667e+09 82 4 0
108.63811 14.176243 24.287096 1.6032667e+09 45 8 0
108.28508 10.413149 24.329773 1.6032667e+09 60 5 0
108.52136 5.1800852 24.324087 1.6032667e+09 6 1 0
108.55477 12.194963 24.367514 1.6032667e+09 57 4 0
109.1451 7.2865291 24.459494 1.6032667e+09 57 1 0
110.18111 14.337561 24.689661 1.6032667e+09 63 9 0
107.33928 10.611026 24.014788 1.6032667e+09 64 6 0
108.05055 6.1128063 24.179005 1.6032667e+09 5 6 0
107.90953 10.901692 24.207458 1.6032667e+09 74 7 0
108.34884 5.8185234 24.248035 1.6032667e+09 5 1 0
107.50927 6.2118335 24.037714 1.6032667e+09 6 3 0
109.59282 5.9125729 24.589815 1.6032667e+09 6 5 0
109.26973 10.636274 24.633821 1.6032667e+09 86 9 0
107.84267 14.240315 24.043964 1.6032667e+09 69 9 0
108.37759 12.793736 24.296087 1.6032667e+09 81 4 0
108.22706 7.9761438 24.303295 1.6032667e+09 50 10 0
108.01965 8.879158 24.24848 1.6032667e+09 54 10 0
108.07161 13.956849 24.10849 1.6032667e+09 79 10 0
108.57691 7.7366748 24.378134 1.6032667e+09 63 11 0
109.36818 6.2663927 24.50466 1.6032667e+09 7 2 0
108.84648 10.914848 24.51816 1.6032667e+09 92 4 0
107.51382 8.6608973 24.105026 1.6032667e+09 55 11 0
108.68901 6.2158117 24.336458 1.6032667e+09 9 11 0
108.15047 10.563942 24.3034 1.6032667e+09 65 12 0
109.8781 14.372431 24.606665 1.6032667e+09 70 11 0
108.43558 8.7888346 24.331587 1.6032667e+09 65 11 0
108.32755 7.2535205 24.269869 1.6032667e+09 30 7 0
108.03847 11.756996 24.239294 1.6032667e+09 64 10 0
107.69913 5.2521863 24.110548 1.6032667e+09 8 11 0
107.30588 8.0159292 24.052395 1.6032667e+09 45 11 0
108.06323 13.203062 24.173031 1.6032667e+09 67 3 0
107.41256 6.3968964 24.013496 1.6032667e+09 10 2 0
110.26131 8.8707743 24.844429 1.6032667e+09 53 10 0
109.86343 13.796931 24.643044 1.6032667e+09 78 10 0
107.56988 9.8786049 24.138626 1.6032667e+09 69 3 0
107.75364 5.0747471 24.148903 1.6032667e+09 10 2 0
109.52457 7.279717 24.572083 1.6032667e+09 65 2 0
109.39922 11.715384 24.602039 1.6032667e+09 77 4 0
108.38652 8.624361 24.31819 1.6032667e+09 56 11 0
107.48625 4.8940105 24.075413 1.6032667e+09 8 11 0
107.8943 12.535669 24.168262 1.6032667e+09 78 12 0
109.05385 7.7230258 24.505724 1.6032667e+09 32 5 0
108.50352 12.409315 24.341805 1.6032667e+09 85 4 0
107.55708 8.8217764 24.117458 1.6032667e+09 56 11 0
107.93667 6.8779316 24.117802 1.6032667e+09 10 2 0
107.39657 11.535397 24.059927 1.6032667e+09 99 11 0
108.34204 12.965032 24.275112 1.6032667e+09 65 4 0
108.26227 8.1712198 24.31369 1.6032667e+09 51 10 0
109.2799 8.5196466 24.571384 1.6032667e+09 39 9 0
108.73885 13.304343 24.355753 1.6032667e+09 60 3 0
107.75255 7.243546 24.078934 1.6032667e+09 62 2 0
107.49812 11.812004 24.084654 1.6032667e+09 80 10 0
110.31394 7.3052726 24.791471 1.6032667e+09 57 2 0
109.61832 11.997957 24.686125 1.6032667e+09 63 10 0
108.49915 10.117948 24.380892 1.6032667e+09 94 4 0
109.02843 5.104249 24.481184 1.6032667e+09 7 5 0
108.76104 11.456797 24.453979 1.6032667e+09 80 4 0
108.98408 6.6987758 24.387379 1.6032667e+09 9 11 0
110.27483 9.5917377 24.907398 1.6032667e+09 64 12 0
107.07736 8.1816645 24.004093 1.6032666e+09 25 10 0
108.89417 6.4685197 24.369028 1.6032667e+09 9 11 0
108.14764 11.406022 24.241693 1.6032667e+09 80 4 0
108.55592 6.8459215 24.263775 1.6032667e+09 9 11 0
108.76069 13.534426 24.347895 1.6032667e+09 66 9 0
108.98299 8.8785067 24.475042 1.6032667e+09 65 11 0
107.68279 10.44261 24.13196 1.6032667e+09 100 11 0
107.94478 5.6212702 24.150585 1.6032667e+09 8 11 0
109.0328 14.078363 24.393866 1.6032667e+09 81 11 0
109.79077 8.8206806 24.706669 1.6032667e+09 57 11 0
109.05254 13.107976 24.435356 1.6032667e+09 68 4 0
109.61211 8.2469397 24.659386 1.6032667e+09 56 11 0
109.30005 12.699541 24.54373 1.6032667e+09 65 7 0
109.55633 8.0848389 24.64566 1.6032667e+09 55 11 0
109.59216 11.215852 24.706699 1.6032667e+09 81 7 0
110.27228 6.8035316 24.718025 1.6032667e+09 7 12 0
109.93473 13.247252 24.64739 1.6032667e+09 69 3 0
110.16335 8.264905 24.811899 1.6032667e+09 51 10 0
109.67616 12.809518 24.613953 1.6032667e+09 89 4 0
110.16118 7.9492626 24.814533 1.6032667e+09 55 11 0
109.58589 11.07867 24.709757 1.6032667e+09 74 7 0
110.36891 6.1761479 24.774717 1.6032667e+09 6 12 0
109.42954 10.275216 24.719612 1.6032667e+09 83 10 0
109.70837 5.5353365 24.618612 1.6032667e+09 15 1 0
108.63499 9.6205883 24.451351 1.6032667e+09 77 9 0
109.01188 5.0221252 24.466364 1.6032667e+09 10 2 0
108.19733 8.1251535 24.273598 1.6032667e+09 74 11 0
107.66943 13.229525 24.039495 1.6032667e+09 72 10 0
110.05568 10.280221 24.88372 1.6032667e+09 85 9 0
110.2332 5.3828244 24.765734 1.6032667e+09 7 2 0
109.23209 9.527092 24.596432 1.6032667e+09 87 4 0
108.83214 14.247604 24.31764 1.6032667e+09 62 10 0
109.8123 5.0647326 24.674719 1.6032667e+09 8 1 0
108.36399 13.891867 24.201738 1.6032667e+09 81 11 0
109.95094 9.8795395 24.806059 1.6032667e+09 65 4 0
110.25734 5.0825124 24.799147 1.6032667e+09 10 2 0
109.02853 14.173654 24.399815 1.6032667e+09 100 11 0
109.97581 6.8790984 24.629435 1.6032667e+09 16 4 0
109.14159 11.281309 24.543667 1.6032667e+09 100 11 0
107.46909 12.445023 24.089577 1.6032667e+09 49 12 0
108.15763 7.9703693 24.26218 1.6032667e+09 55 11 0
81.384346 8.3354702 17.254894 1.6032666e+09 4 4 0
78.695953 8.9984531 16.610754 1.6032666e+09 51 2 0
81.32666 6.3410883 17.32654 1.6032666e+09 3 5 0
78.386711 9.2466946 16.491766 1.6032666e+09 50 3 0
81.535927 6.0636449 17.382645 1.6032666e+09 4 1 0
79.975388 8.2190428 16.915041 1.6032666e+09 2 7 0
79.324326 8.6228046 16.737928 1.6032666e+09 4 6 0
81.401115 14.378144 16.980864 1.6032666e+09 52 7 0
81.593414 5.6879463 17.432531 1.6032666e+09 3 9 0
81.480606 13.283896 16.468212 1.6032666e+09 49 6 0
80.106346 5.1172972 17.069319 1.6032666e+09 5 1 0
80.858696 5.5306959 17.245602 1.6032666e+09 8 7 0
80.123398 6.0611534 17.037188 1.6032666e+09 3 5 0
80.967743 6.2576556 17.236917 1.6032666e+09 5 3 0
81.395386 7.4124355 17.311377 1.6032666e+09 3 9 0
81.441368 7.9514318 17.286797 1.6032666e+09 4 4 0
79.971939 8.9402981 16.878288 1.6032666e+09 63 5 0
77.11203 8.6386137 16.305767 1.6032666e+09 46 3 0
80.381699 5.1393266 17.140196 1.6032666e+09 6 6 0
79.883659 5.58148 17.006989 1.6032666e+09 5 2 0
81.230782 6.8574934 17.289627 1.6032666e+09 5 2 0
80.467804 6.7428627 17.099943 1.6032666e+09 4 4 0
80.760559 7.3486195 17.13427 1.6032666e+09 12 3 0
80.512123 7.4066114 17.083046 1.6032666e+09 10 7 0
80.817253 8.0654001 17.129196 1.6032666e+09 4 4 0
80.30088 7.9404645 17.013493 1.6032666e+09 4 4 0
81.23085 8.6152477 17.197577 1.6032666e+09 11 7 0
80.207924 8.5693064 16.963354 1.6032666e+09 4 4 0
78.108871 8.2636461 16.446861 1.6032666e+09 2 7 0
78.577217 8.1913824 16.577915 1.6032666e+09 4 8 0
79.745361 14.338005 16.4902 1.6032666e+09 37 5 0
80.200569 14.183877 16.641685 1.6032666e+09 62 8 0
79.852715 14.135262 16.54711 1.6032666e+09 55 3 0
79.389679 14.318324 16.446537 1.6032666e+09 42 3 0
79.304871 5.3006392 16.872135 1.6032666e+09 5 3 0
80.592888 7.4190679 17.111944 1.6032666e+09 7 2 0
79.640488 7.2094979 16.874624 1.6032666e+09 4 3 0
79.6045 8.0506058 16.830441 1.6032666e+09 4 4 0
81.014534 10.26664 17.083817 1.6032666e+09 66 4 0
79.477119 9.976387 16.700937 1.6032666e+09 54 3 0
78.484917 14.375555 16.202875 1.6032666e+09 57 4 0
77.732872 5.2188754 16.484289 1.6032666e+09 5 1 0
78.690598 5.6601615 16.710159 1.6032666e+09 5 3 0
77.704292 6.1418886 16.438324 1.6032666e+09 3 5 0
78.598732 6.0119247 16.666582 1.6032666e+09 5 2 0
79.015594 6.8666973 16.74218 1.6032666e+09 5 2 0
78.915215 6.9695024 16.703125 1.6032666e+09 9 1 0
79.085838 7.905735 16.710657 1.6032666e+09 4 4 0
72.07476 8.3569155 14.96392 1.6032666e+09 3 3 0
76.886757 14.282482 15.768223 1.6032666e+09 51 4 0
77.502892 14.168098 15.945728 1.6032666e+09 57 4 0
76.951218 9.2579527 16.16066 1.6032666e+09 62 7 0
72.510216 9.2352676 15.050013 1.6032666e+09 57 5 0
77.966019 6.2360201 16.506191 1.6032666e+09 6 1 0
77.465561 5.8573585 16.399786 1.6032666e+09 5 2 0
78.575439 6.4771996 16.639175 1.6032666e+09 6 3 0
77.962334 6.5373268 16.483433 1.6032666e+09 5 3 0
78.323639 6.9751678 16.562326 1.6032666e+09 5 2 0
78.000954 7.2199163 16.459457 1.6032666e+09 4 4 0
78.747673 7.9792118 16.617603 1.6032666e+09 11 7 0
78.097168 7.9070492 16.456146 1.6032666e+09 8 6 0
75.024986 8.1150408 15.7052 1.6032666e+09 2 7 0
77.115341 8.5852957 17.970936 1.6032666e+09 255 3 0
75.139671 9.0615883 15.728159 1.6032666e+09 81 4 0
77.177109 8.8829927 17.783337 1.6032666e+09 70 11 0
74.238907 7.6389465 15.532301 1.6032666e+09 4 4 0
75.768089 9.12854 15.871089 1.6032666e+09 100 4 0
76.178505 9.2918644 15.965209 1.6032666e+09 57 5 0
74.581322 8.4399834 15.58435 1.6032666e+09 2 7 0
76.109962 10.099624 15.842991 1.6032666e+09 56 7 0
76.977638 10.242628 16.06535 1.6032666e+09 80 4 0
76.9646 5.3657207 16.303715 1.6032666e+09 10 2 0
76.924263 5.7060542 16.263649 1.6032666e+09 5 3 0
80.329964 9.0927906 17.005398 1.6032666e+09 49 2 0
80.709251 9.2874222 17.110443 1.6032666e+09 58 10 0
77.494995 7.6653194 16.314438 1.6032666e+09 4 6 0
78.192696 9.981617 16.414114 1.6032666e+09 54 9 0
74.129211 14.205298 15.077456 1.6032666e+09 34 3 0
76.500183 7.1872454 16.106665 1.6032666e+09 5 2 0
81.064636 10.080349 17.100464 1.6032666e+09 83 4 0
80.628654 9.9468899 17.034569 1.6032666e+09 62 10 0
72.083153 5.397716 15.095125 1.6032666e+09 10 2 0
75.561684 7.4108305 15.8541 1.6032666e+09 36 4 0
76.492867 7.2172279 16.102783 1.6032666e+09 10 2 0
79.991188 9.8529224 16.854088 1.6032666e+09 90 4 0
81.084297 9.5585976 17.15398 1.6032666e+09 81 4 0
80.433739 9.7303448 16.993166 1.6032666e+09 65 4 0
76.963264 7.6701636 16.193474 1.6032666e+09 4 2 0
77.026566 8.5950365 16.229195 1.6032666e+09 46 4 0
77.197472 10.088067 16.144386 1.6032666e+09 59 7 0
73.427063 8.3489475 15.307382 1.6032666e+09 2 7 0
72.301414 8.6426153 15.020531 1.6032666e+09 4 2 0
81.258743 14.346848 16.934319 1.6032666e+09 64 11 0
80.641724 13.483387 16.513775 1.6032666e+09 18 1 0
78.972641 13.315107 15.818273 1.6032666e+09 49 6 0
79.888809 13.47309 16.162199 1.6032666e+09 74 11 0
79.586456 9.95469 16.736217 1.6032666e+09 55 12 0
77.5896 9.7809305 16.283443 1.6032666e+09 91 11 0
74.227417 13.400452 14.689413 1.6032666e+09 45 6 0
74.781868 13.464612 14.908123 1.6032666e+09 46 7 0
74.736763 9.4730644 15.625537 1.6032666e+09 91 11 0
81.489235 13.509738 16.769476 1.6032666e+09 69 11 0
80.278839 13.42533 16.200779 1.6032666e+09 56 11 0
81.255447 13.386266 16.572313 1.6032666e+09 72 11 0
74.498062 9.0052948 15.568628 1.6032666e+09 78 4 0
73.29805 5.3141837 15.385094 1.6032666e+09 5 3 0
72.829857 5.63937 15.297821 1.6032666e+09 9 11 0
75.319427 13.476757 15.075947 1.6032666e+09 46 7 0
76.450127 13.416126 15.314081 1.6032666e+09 40 7 0
79.345825 9.3665667 16.719038 1.6032666e+09 69 4 0
77.566414 9.1582851 16.325806 1.6032666e+09 63 11 0
72.858429 6.8493047 15.254012 1.6032666e+09 9 11 0
73.248535 6.4287844 15.363218 1.6032666e+09 9 11 0
72.789169 9.8413658 15.0488 1.6032666e+09 76 4 0
79.87999 14.056039 16.558466 1.6032666e+09 42 3 0
78.912109 13.678172 16.249752 1.6032666e+09 83 11 0
75.557358 13.605877 15.286452 1.6032666e+09 69 11 0
76.358444 13.662352 15.574862 1.6032666e+09 51 11 0
74.567726 6.1563859 15.701631 1.6032666e+09 9 11 0
72.966507 13.583568 14.525906 1.6032666e+09 72 9 0
73.850891 13.690145 14.942525 1.6032666e+09 57 9 0
81.447128 13.362956 16.591545 1.6032666e+09 73 11 0
80.916618 13.331532 16.306068 1.6032666e+09 51 7 0
72.01371 5.9610949 15.06706 1.6032666e+09 9 11 0
77.659332 13.720973 15.945983 1.6032666e+09 47 7 0
76.545029 13.547021 15.49254 1.6032666e+09 70 11 0
72.663391 14.274288 14.719914 1.6032666e+09 46 4 0
72.070602 14.283564 14.604466 1.6032666e+09 63 4 0
72.187263 9.580945 14.988969 1.6032666e+09 61 10 0
78.080605 13.523917 15.888086 1.6032666e+09 58 9 0
78.468918 13.556462 16.025349 1.6032666e+09 71 11 0
72.917854 14.245034 14.792013 1.6032666e+09 28 3 0
72.36544 14.153685 14.667958 1.6032666e+09 28 5 0
73.37925 13.714832 14.777304 1.6032666e+09 70 11 0
72.474815 13.644495 14.528404 1.6032666e+09 71 11 0
72.125984 9.2352467 14.954843 1.6032666e+09 67 4 0
75.978882 9.8658695 15.848369 1.6032666e+09 50 7 0
76.982071 9.7383022 16.129953 1.6032666e+09 83 11 0
78.057137 14.135586 16.106714 1.6032666e+09 60 4 0
77.188637 14.142095 15.893264 1.6032666e+09 30 8 0
81.205948 13.505865 16.697975 1.6032666e+09 70 11 0
80.402092 13.528441 16.488968 1.6032666e+09 70 11 0
74.436218 9.5307665 15.517147 1.6032666e+09 85 4 0
73.548508 9.6355639 15.2875 1.6032666e+09 52 7 0
75.284409 13.87333 15.379315 1.6032666e+09 30 1 0
73.622971 13.527195 14.659086 1.6032666e+09 45 3 0
74.524925 13.670908 15.059261 1.6032666e+09 70 11 0
73.374275 9.2387142 15.245505 1.6032666e+09 65 4 0
73.921211 9.0296888 15.42397 1.6032666e+09 85 4 0
73.266556 9.8399515 15.189912 1.6032666e+09 80 4 0
73.663597 9.3896341 15.346121 1.6032666e+09 91 11 0
79.994942 13.567447 16.355761 1.6032666e+09 70 11 0
80.185928 13.758106 16.563517 1.6032666e+09 55 4 0
78.125809 13.610487 15.991664 1.6032666e+09 70 11 0
77.260674 13.604914 15.745664 1.6032666e+09 69 11 0
75.142624 7.2390103 15.795421 1.6032666e+09 9 11 0
75.222488 13.623875 15.218322 1.6032666e+09 71 4 0
75.840645 13.673701 15.394392 1.6032666e+09 52 10 0
78.762222 13.44233 15.93162 1.6032666e+09 45 7 0
77.923363 13.377038 15.666848 1.6032666e+09 88 4 0
72.820297 13.759108 14.722865 1.6032666e+09 34 11 0
72.12075 13.792708 14.543541 1.6032666e+09 80 3 0
73.101372 7.3589659 15.2595 1.6032666e+09 6 4 0
73.680542 7.417017 15.398963 1.6032666e+09 17 4 0
73.832802 10.277756 15.300229 1.6032666e+09 85 4 0
73.256783 10.143844 15.157983 1.6032666e+09 71 4 0
79.317642 13.479098 16.059587 1.6032666e+09 50 7 0
78.86335 13.295528 15.752798 1.6032666e+09 59 7 0
74.944298 5.7212653 15.783618 1.6032666e+09 9 11 0
75.510056 5.7428436 15.934851 1.6032666e+09 9 11 0
74.842369 5.6305704 15.770238 1.6032666e+09 9 11 0
75.373047 5.4457674 15.913717 1.6032666e+09 8 11 0
73.846596 13.470513 14.666399 1.6032666e+09 73 11 0
74.639656 13.38126 14.74973 1.6032666e+09 43 7 0
72.978142 8.6031485 15.178421 1.6032666e+09 3 7 0
73.580605 8.2872133 15.354199 1.6032666e+09 4 9 0
76.477173 14.212628 15.683255 1.6032666e+09 73 10 0
78.64566 9.4049826 16.546829 1.6032666e+09 49 6 0
78.045456 9.6705599 16.39537 1.6032666e+09 90 11 0
75.179443 5.0834875 15.86449 1.6032666e+09 5 3 0
75.697731 14.10259 15.48105 1.6032666e+09 38 7 0
78.288521 7.0826454 16.549963 1.6032666e+09 5 2 0
77.346786 7.046669 16.346584 1.6032666e+09 9 11 0
76.700111 6.4889116 16.18824 1.6032666e+09 10 2 0
76.463768 5.328372 16.211815 1.6032666e+09 8 11 0
76.754578 13.416236 15.339091 1.6032666e+09 55 4 0
76.396561 13.392719 15.265216 1.6032666e+09 49 6 0
76.058304 8.1160116 15.948823 1.6032666e+09 8 4 0
75.37117 8.2560663 15.795205 1.6032666e+09 4 9 0
77.599014 13.419744 15.568748 1.6032666e+09 40 7 0
76.533974 13.287347 15.175354 1.6032666e+09 51 4 0
72.00473 7.7981248 14.977401 1.6032666e+09 9 2 0
77.291962 6.8432517 16.308363 1.6032666e+09 12 3 0
78.248276 6.4063478 16.56661 1.6032666e+09 9 11 0
72.217117 7.165215 15.056746 1.6032666e+09 3 5 0
78.121704 5.5762067 16.564186 1.6032666e+09 5 3 0
77.644257 5.2639689 16.475019 1.6032666e+09 8 11 0
75.753349 9.8669043 15.794565 1.6032666e+09 80 4 0
76.338875 9.6039076 15.962741 1.6032666e+09 76 4 0
73.260147 6.9864874 15.327756 1.6032666e+09 2 7 0
72.817131 7.2135987 15.202728 1.6032666e+09 5 2 0
72.18454 6.5256557 15.097297 1.6032666e+09 3 9 0
73.063171 13.450134 14.42171 1.6032666e+09 41 7 0
73.784653 13.490952 14.736799 1.6032666e+09 32 8 0
79.453064 6.2063413 16.870308 1.6032666e+09 9 11 0
73.016655 6.0214396 15.327345 1.6032666e+09 9 11 0
72.670387 6.1383657 15.189471 1.6032666e+09 4 4 0
80.490585 6.6592236 17.104347 1.6032666e+09 4 4 0
79.668915 6.6744585 16.907658 1.6032666e+09 9 11 0
73.042099 7.830162 15.22316 1.6032666e+09 4 4 0
73.539627 8.0992804 15.348619 1.6032666e+09 3 9 0
72.389305 8.0390387 15.051915 1.6032666e+09 4 4 0
73.446487 7.8339033 15.339499 1.6032666e+09 3 9 0
80.403099 5.8268175 17.140142 1.6032666e+09 6 9 0
79.65889 6.1063538 16.940149 1.6032666e+09 9 11 0
72.786911 13.487093 14.426261 1.6032666e+09 40 7 0
73.097397 6.390192 15.299616 1.6032666e+09 5 3 0
73.705444 6.3499546 15.453801 1.6032666e+09 6 3 0
80.74585 9.7433071 17.052952 1.6032666e+09 47 7 0
81.407867 9.3359089 17.274382 1.6032666e+09 76 11 0
76.336998 10.09557 15.909783 1.6032666e+09 83 4 0
75.786896 10.11262 15.765889 1.6032666e+09 76 4 0
74.278122 7.3591928 15.554033 1.6032666e+09 4 4 0
74.400139 6.3248005 15.629645 1.6032666e+09 4 4 0
73.71801 6.2954836 15.458222 1.6032666e+09 5 3 0
73.851151 5.5163274 15.521396 1.6032666e+09 5 3 0
73.896866 14.28052 15.004105 1.6032666e+09 25 5 0
74.442894 10.234395 15.439712 1.6032666e+09 80 4 0
73.619331 9.9837275 15.281256 1.6032666e+09 60 7 0
75.998871 7.8745584 15.957338 1.6032666e+09 10 11 0
75.479462 7.8631268 15.835737 1.6032666e+09 4 8 0
75.562035 6.3387175 15.902691 1.6032666e+09 5 2 0
74.901184 6.5658145 15.736429 1.6032666e+09 10 2 0
74.663643 5.6251731 15.713674 1.6032666e+09 10 5 0
74.800201 7.8096752 15.664852 1.6032666e+09 4 4 0
75.883545 8.0810223 15.937857 1.6032666e+09 3 9 0
76.163063 6.3813772 16.056152 1.6032666e+09 7 2 0
75.493942 6.7079587 15.8692 1.6032666e+09 5 1 0
76.226028 5.9911146 16.087904 1.6032666e+09 9 11 0
75.525581 6.2571769 15.89917 1.6032666e+09 4 7 0
75.168404 10.180882 15.607539 1.6032666e+09 80 4 0
129.75131 37.827755 34.568577 1.6032667e+09 27 12 0
133.84215 42.495728 38.341728 1.6032667e+09 51 14 0
130.21144 38.746433 35.316662 1.6032667e+09 27 11 0
129.79405 38.19006 34.894066 1.6032667e+09 54 10 0
130.04092 38.514652 35.154705 1.6032667e+09 100 11 0
130.76996 38.350285 35.156521 1.6032667e+09 100 11 0
130.0582 38.519131 35.097599 1.6032667e+09 54 12 0
135.24734 41.293617 37.614239 1.6032667e+09 42 14 0
131.80927 38.068031 34.797916 1.6032667e+09 80 13 0
136.64067 41.235298 37.736233 1.6032667e+09 15 14 0
136.47714 41.151138 37.614506 1.6032667e+09 30 14 0
135.46976 41.655346 37.92131 1.6032667e+09 55 14 0
131.96391 40.941166 36.930607 1.6032667e+09 40 14 0
129.88545 38.092285 34.070332 1.6032667e+09 100 12 0
130.25432 37.934673 34.810326 1.6032667e+09 100 11 0
134.89496 40.895813 37.256893 1.6032667e+09 14 14 0
135.49115 41.073734 37.461159 1.6032667e+09 42 14 0
133.32486 40.980721 37.125721 1.6032667e+09 56 14 0
132.36652 40.538746 36.713863 1.6032667e+09 42 14 0
136.76254 40.640491 37.26038 1.6032667e+09 16 14 0
136.27271 40.615013 37.178993 1.6032667e+09 16 14 0
137.94939 40.546223 37.441814 1.6032667e+09 17 14 0
137.44594 40.517818 37.354366 1.6032667e+09 17 14 0
133.80634 40.248302 36.644226 1.6032667e+09 29 14 0
135.00296 40.337612 36.93124 1.6032667e+09 15 14 0
134.25363 40.282608 36.717041 1.6032667e+09 29 14 0
132.44594 41.670147 37.515312 1.6032667e+09 50 14 0
132.14513 41.228767 37.182041 1.6032667e+09 26 14 0
130.6552 41.615849 36.340794 1.6032667e+09 31 14 0
137.05199 40.006985 36.943348 1.6032667e+09 18 14 0
136.29565 39.993782 36.813259 1.6032667e+09 17 14 0
134.28598 41.728329 37.860809 1.6032667e+09 53 14 0
134.11739 41.399361 37.540138 1.6032667e+09 54 14 0
133.63014 41.444759 37.48394 1.6032667e+09 31 15 0
134.03712 41.660301 37.699692 1.6032667e+09 39 14 0
